ply
format ascii 1.0
element vertex 1918
property float x
property float y
property float z
property uchar red
property uchar green
property uchar blue
end_header
102 -186 412 141 144 154
103 -186 412 140 143 152
104 -185 411 140 143 152
104 -185 411 139 142 151
105 -185 410 139 142 151
105 -184 409 140 143 152
106 -184 409 138 141 150
106 -184 408 136 139 148
107 -184 408 138 141 150
107 -183 407 139 142 151
108 -183 407 141 144 153
108 -183 406 142 145 154
108 -182 405 141 144 153
109 -182 405 140 143 152
109 -182 404 141 144 153
110 -182 404 143 146 155
110 -181 403 145 148 157
111 -181 403 144 147 156
112 -181 403 144 147 156
112 -181 402 142 145 154
113 -181 402 143 146 155
113 -180 401 144 147 156
114 -180 401 142 145 154
114 -180 400 141 144 153
114 -180 399 138 141 150
115 -180 399 139 142 151
115 -179 398 136 139 147
116 -179 398 136 139 146
116 -179 397 137 140 147
117 -178 396 136 139 146
117 -178 395 137 140 147
118 -178 395 140 143 150
118 -177 394 141 144 151
118 -177 393 144 147 154
119 -176 392 142 145 152
119 -176 392 138 141 148
120 -176 392 134 137 144
120 -176 391 131 134 141
121 -176 391 132 135 142
121 -176 391 133 136 143
122 -175 390 134 137 144
122 -175 390 132 135 142
123 -175 390 133 136 143
123 -175 389 135 138 145
123 -174 388 134 137 144
124 -174 387 134 137 144
124 -173 386 135 138 145
125 -173 386 135 138 145
125 -173 385 137 140 147
125 -173 385 137 140 147
126 -173 385 136 139 146
126 -173 384 135 138 145
127 -172 383 135 138 145
127 -172 382 134 137 144
128 -172 382 134 137 144
128 -172 382 134 137 144
128 -171 381 135 138 145
129 -171 380 136 139 146
129 -171 380 135 138 145
129 -170 379 135 138 145
130 -170 378 136 139 146
130 -170 378 136 139 146
131 -169 377 137 140 147
131 -169 377 136 139 146
131 -169 376 134 137 144
132 -168 375 133 136 143
132 -168 375 133 136 143
133 -168 375 133 136 143
133 -168 374 132 134 141
134 -168 374 131 133 140
134 -168 374 133 135 142
134 -167 373 135 137 144
135 -167 372 134 136 143
135 -167 372 138 140 147
135 -167 371 136 138 145
136 -166 370 133 135 142
136 -166 369 131 133 140
136 -166 369 130 132 139
137 -166 369 130 132 139
137 -165 368 130 132 139
138 -165 368 130 132 139
138 -165 367 132 134 141
139 -165 367 132 134 141
139 -165 367 133 135 142
140 -165 367 133 135 142
140 -164 366 134 136 143
140 -164 366 136 138 145
141 -164 365 137 139 146
141 -164 365 136 138 145
142 -164 365 136 138 145
142 -163 364 135 137 144
142 -163 363 135 137 144
142 -162 362 135 137 144
143 -162 362 133 135 142
143 -162 362 132 134 141
144 -162 361 134 136 143
144 -162 361 139 137 145
145 -162 361 139 134 143
145 -161 360 138 135 143
145 -161 360 138 135 142
146 -161 359 135 134 141
146 -161 359 132 134 140
147 -161 359 131 133 139
147 -160 358 130 133 139
147 -160 358 130 131 137
148 -160 358 134 131 138
148 -160 357 125 117 125
148 -159 356 105 90 100
148 -159 355 86 65 75
149 -159 355 87 60 71
149 -159 354 81 51 62
149 -158 353 81 48 60
149 -158 352 84 51 62
150 -157 351 81 48 58
150 -157 350 79 46 56
149 -156 348 77 44 54
149 -155 347 76 43 53
150 -155 346 75 42 52
150 -155 346 74 41 51
-1367 -1380 3096 154 157 163
-1357 -1374 3082 153 156 162
-1350 -1373 3078 152 155 161
-1343 -1370 3072 154 157 163
-1333 -1365 3060 156 159 165
-1324 -1361 3051 156 159 165
-1317 -1358 3045 154 157 163
-348 -402 899 158 161 168
-346 -401 897 157 160 167
-344 -400 895 150 153 160
-342 -400 895 149 152 159
-340 -399 893 147 150 157
-338 -398 891 156 159 166
-322 -390 873 156 159 168
-320 -389 871 154 157 166
-318 -389 869 153 156 165
-316 -388 868 155 158 167
-314 -387 866 156 159 168
-312 -386 864 155 158 167
-310 -386 862 155 158 167
-308 -385 861 156 159 168
-305 -384 858 155 158 167
-304 -383 857 157 160 169
-302 -382 855 155 158 167
-300 -382 853 157 160 169
-298 -381 851 155 158 167
-296 -380 850 156 159 168
-294 -379 848 154 157 166
-292 -379 846 154 157 166
-290 -378 844 154 157 166
-288 -377 843 154 157 166
-281 -374 836 154 157 167
-279 -373 834 151 154 165
-277 -373 833 156 159 170
-275 -372 832 157 160 171
-273 -372 830 152 155 166
-272 -371 829 150 153 164
-269 -370 826 155 158 169
-268 -369 825 157 160 171
-262 -367 820 157 160 171
-260 -366 818 157 160 171
-259 -365 816 154 157 168
-255 -364 813 157 160 171
-253 -363 811 160 163 174
-252 -363 810 158 161 171
-250 -362 808 156 159 168
-248 -362 807 151 154 163
-247 -361 806 146 149 158
-245 -360 804 152 155 164
-243 -360 803 151 154 163
-241 -359 801 153 156 165
-240 -358 800 156 159 168
-238 -358 798 159 162 171
-236 -357 797 155 158 167
-235 -357 796 159 162 171
-233 -356 794 154 157 166
-231 -355 792 156 159 168
-229 -354 789 155 158 167
-227 -353 788 156 159 168
-226 -352 786 156 159 168
-224 -351 784 151 154 163
-222 -351 782 149 152 161
-220 -350 781 153 156 165
-219 -349 779 153 156 165
-217 -348 777 155 158 167
-215 -348 776 158 161 170
-214 -347 774 157 160 169
-212 -347 773 155 158 167
-211 -346 772 154 157 166
-209 -345 770 154 157 166
-207 -345 769 153 156 165
-206 -344 768 155 158 167
-204 -344 766 156 159 168
-202 -343 764 154 157 166
-201 -342 762 153 156 165
-199 -341 760 154 157 166
-197 -341 759 155 158 167
-196 -340 757 152 155 164
-194 -339 756 152 155 164
-193 -338 754 153 156 165
-191 -337 752 154 157 166
-189 -337 751 155 158 167
-188 -336 749 155 158 167
-186 -336 748 155 158 167
-185 -335 746 156 159 168
-183 -334 745 155 158 167
-182 -333 743 151 154 163
-180 -333 742 149 152 161
-179 -333 741 149 152 161
-177 -332 740 149 152 161
-176 -331 738 154 157 166
-174 -331 737 158 161 170
-173 -330 735 157 160 169
-171 -330 734 154 157 166
-170 -329 733 154 157 165
-168 -329 732 153 156 163
-167 -328 731 152 155 163
-165 -327 729 151 154 163
-164 -327 728 150 153 163
-163 -326 727 149 152 163
-161 -326 725 149 152 163
-160 -325 724 149 152 163
-158 -324 721 149 152 163
-156 -323 719 151 154 165
-155 -322 717 151 154 165
-153 -322 716 151 154 165
-152 -321 714 152 155 167
-150 -320 712 152 155 168
-149 -319 711 152 155 167
-148 -319 710 157 160 171
-146 -319 709 162 165 176
-145 -318 708 157 160 171
-143 -317 706 154 157 168
-142 -317 705 154 157 168
-141 -316 704 153 156 167
-139 -315 701 155 158 169
-138 -314 699 156 159 170
-136 -314 698 156 159 170
-135 -313 697 155 158 169
-134 -313 696 153 156 167
-132 -312 694 151 154 165
-131 -311 692 152 155 166
-129 -311 691 153 156 167
-128 -310 690 150 153 164
-127 -310 689 151 154 165
-125 -309 687 153 156 167
-124 -308 686 155 158 169
-123 -307 684 154 157 168
-121 -307 683 151 154 165
-120 -306 681 152 155 166
-118 -305 678 154 157 168
-117 -305 678 155 158 169
-116 -304 677 155 158 169
-115 -304 676 153 156 167
-114 -304 675 155 158 169
-112 -303 673 153 156 167
-111 -302 672 152 155 166
-110 -301 670 148 151 162
-108 -301 669 158 161 172
-107 -300 667 156 159 170
-106 -300 666 155 158 169
-105 -299 665 150 153 164
-103 -298 663 148 151 162
-102 -298 662 152 155 166
-101 -297 660 152 155 166
-99 -296 658 148 151 162
-98 -296 657 152 155 166
-97 -295 656 156 159 170
-96 -294 654 153 156 167
-94 -293 652 153 156 167
-93 -293 651 154 157 168
-92 -292 649 152 155 166
-90 -291 647 152 155 166
-89 -290 645 155 158 169
-88 -290 644 152 155 166
-87 -289 643 149 152 163
-86 -289 642 148 151 162
-84 -288 641 148 151 162
-83 -288 639 150 153 164
-82 -287 637 154 157 168
-81 -287 637 155 158 169
-80 -286 635 151 154 165
-79 -285 634 148 151 162
-77 -285 634 148 151 162
-76 -285 633 147 150 161
-75 -284 632 146 149 160
-74 -284 631 147 150 161
-73 -283 629 149 152 163
-72 -282 627 151 154 165
-71 -282 626 151 154 165
-69 -281 624 154 157 168
-68 -280 623 153 156 167
-67 -280 622 154 157 168
-66 -280 621 154 157 168
-65 -279 620 153 156 167
-64 -279 619 149 152 163
-63 -278 617 148 151 163
-62 -277 616 151 154 167
-60 -276 614 150 153 166
-59 -276 614 149 152 165
-58 -276 613 149 152 165
-57 -275 611 150 153 166
-56 -275 610 149 152 165
-55 -274 609 150 153 166
-54 -274 608 155 158 171
-53 -273 607 155 158 171
-52 -272 605 152 155 168
-51 -272 604 153 156 169
-50 -272 603 151 154 167
-49 -271 602 154 157 170
-48 -270 600 151 154 167
-46 -269 598 155 158 171
-45 -268 596 156 159 172
-44 -268 595 154 157 170
-43 -267 593 150 153 166
-42 -267 592 151 154 167
-41 -267 592 150 153 166
-40 -266 591 149 152 165
-39 -266 590 151 154 167
-38 -265 589 155 158 171
-37 -264 587 154 157 170
-36 -264 586 150 153 166
-35 -263 584 154 157 170
-34 -263 583 148 151 164
-33 -263 583 160 163 176
-32 -262 582 157 160 173
-31 -262 581 154 157 170
-30 -261 579 154 157 170
-29 -260 578 157 160 173
-28 -260 577 153 156 169
-27 -259 575 151 154 167
-26 -258 573 152 155 168
-25 -258 572 148 151 164
-24 -258 572 150 153 166
-23 -257 570 151 154 167
-22 -256 568 153 156 169
-21 -255 567 154 157 170
-20 -255 566 158 161 174
-19 -254 564 156 159 172
-19 -254 563 155 158 171
-18 -253 562 155 158 171
-17 -253 561 154 157 170
-16 -252 559 152 155 168
-15 -251 558 154 157 170
-14 -251 557 153 156 169
-13 -250 556 154 157 170
-12 -250 554 154 157 170
-11 -249 553 151 154 167
-10 -249 552 150 153 166
-9 -249 552 149 152 165
-8 -248 551 156 159 172
-8 -248 551 155 158 171
-7 -248 550 153 156 169
-6 -247 549 156 159 172
-5 -247 548 155 158 171
-4 -246 546 150 153 166
-3 -245 544 151 154 167
-2 -244 542 156 159 172
-1 -244 541 155 158 171
-1 -243 540 151 154 167
0 -243 539 150 153 166
1 -243 539 152 155 168
2 -242 537 150 153 166
3 -241 536 147 150 163
4 -241 535 151 154 167
5 -241 534 154 157 170
5 -239 531 154 157 170
6 -239 530 152 155 168
7 -238 529 152 155 168
8 -237 527 152 155 168
9 -237 527 150 153 166
10 -237 526 150 153 166
10 -236 525 149 153 166
11 -236 524 146 151 164
12 -236 523 151 156 169
13 -235 522 152 157 170
14 -235 521 151 156 169
14 -234 520 149 154 167
15 -234 519 149 154 167
16 -233 518 151 156 169
17 -233 517 151 156 169
18 -233 517 153 158 171
18 -232 516 152 157 170
19 -232 514 151 156 169
20 -231 513 152 157 170
21 -231 513 149 154 167
22 -231 512 146 151 164
22 -230 510 148 153 166
23 -229 509 147 152 165
24 -229 508 147 152 165
25 -228 507 148 153 166
25 -228 506 147 152 165
26 -227 505 146 151 164
27 -227 504 145 150 163
28 -227 503 146 151 164
28 -226 502 147 152 165
29 -226 501 146 151 164
30 -226 501 147 152 165
31 -225 500 148 153 166
31 -225 499 143 148 161
32 -224 498 143 148 161
33 -224 497 150 155 168
34 -223 496 152 157 170
34 -223 495 149 154 167
35 -222 494 148 153 166
36 -222 493 150 155 168
36 -222 492 146 151 164
37 -222 492 141 146 159
38 -221 491 140 145 158
39 -221 490 141 146 159
39 -220 489 141 146 159
40 -220 488 143 148 161
41 -219 486 148 153 166
41 -219 486 151 156 169
42 -218 485 153 158 171
43 -218 485 151 156 169
44 -218 484 147 152 165
44 -217 483 146 151 164
45 -217 483 146 151 164
46 -217 481 146 151 164
46 -217 481 145 150 163
47 -216 480 140 145 158
48 -216 479 141 146 159
48 -215 478 143 148 161
49 -215 477 144 149 162
50 -215 477 145 150 163
51 -215 477 144 149 162
51 -214 476 146 151 164
52 -214 475 153 158 171
52 -213 474 146 151 164
53 -212 472 137 142 155
54 -212 471 140 145 158
54 -212 470 145 150 163
55 -211 468 147 152 165
56 -211 468 143 148 161
56 -210 467 146 151 164
57 -210 467 146 151 164
58 -210 467 146 151 164
58 -210 466 145 150 163
59 -210 466 145 150 163
60 -209 465 144 149 162
60 -209 464 141 146 159
61 -208 463 146 151 164
61 -208 462 145 150 163
62 -207 460 136 141 154
63 -207 460 142 147 160
63 -207 460 145 150 163
64 -207 459 147 152 165
65 -206 458 145 150 163
65 -206 457 142 147 160
66 -206 457 143 148 161
66 -205 456 147 152 165
67 -205 455 145 150 163
68 -205 455 142 147 160
68 -204 454 145 150 163
69 -204 453 142 147 160
69 -203 452 139 144 157
70 -203 451 139 144 157
71 -203 451 142 147 160
71 -202 450 144 149 162
72 -202 449 144 149 162
72 -201 448 146 151 164
73 -201 448 144 149 162
74 -201 448 143 148 161
74 -201 446 144 149 162
75 -201 446 146 151 164
75 -200 445 147 152 165
76 -200 444 147 152 165
77 -199 443 145 150 163
77 -199 443 145 150 163
78 -199 443 141 146 159
78 -199 442 135 140 153
79 -198 441 135 140 153
79 -198 440 139 144 157
80 -197 439 140 145 158
81 -197 438 143 148 161
81 -197 438 147 152 165
82 -196 437 147 152 165
82 -196 437 146 151 164
83 -196 437 144 149 162
84 -196 436 143 148 161
84 -196 435 144 149 162
85 -195 434 143 148 161
85 -195 433 141 146 159
86 -195 433 139 144 156
86 -194 432 143 148 159
87 -194 432 142 147 158
87 -194 431 142 147 158
88 -194 431 143 148 159
89 -193 430 143 148 159
89 -193 429 144 149 160
90 -192 428 147 152 163
90 -192 428 148 153 164
91 -192 427 142 147 158
91 -192 427 141 146 157
92 -191 426 142 147 158
93 -191 426 143 148 159
93 -191 425 142 147 158
93 -190 424 142 147 158
94 -190 424 142 147 158
95 -190 423 142 146 157
95 -190 422 142 145 156
95 -189 421 138 141 152
96 -189 421 139 142 153
97 -189 420 141 144 155
97 -189 420 142 145 156
98 -188 419 143 146 157
98 -188 418 143 146 157
98 -187 417 143 146 157
99 -187 417 143 146 157
100 -187 417 144 147 158
100 -186 415 143 146 157
100 -186 414 142 145 156
101 -186 414 145 148 159
102 -186 414 144 147 158
102 -185 413 141 144 155
102 -185 412 140 143 153
103 -184 411 140 143 152
104 -184 411 140 143 152
104 -184 410 139 142 151
105 -184 410 139 142 151
105 -184 409 140 143 152
105 -183 408 139 142 151
106 -183 408 139 142 151
107 -183 408 141 144 153
107 -183 407 141 144 153
107 -182 406 143 146 155
108 -182 406 144 147 156
108 -182 405 143 146 155
109 -182 405 142 145 154
109 -181 404 143 146 155
110 -181 404 144 147 156
110 -181 403 145 148 157
111 -181 403 143 146 155
111 -180 402 143 146 155
112 -180 402 141 144 153
112 -180 401 142 145 154
113 -180 401 144 147 156
113 -179 400 142 145 154
114 -179 400 140 143 152
114 -179 399 137 140 149
115 -179 399 138 141 150
115 -178 398 137 140 148
116 -178 398 137 140 147
116 -178 397 138 141 148
117 -178 396 137 140 147
117 -177 395 137 140 147
117 -177 394 137 140 147
118 -177 394 137 140 147
118 -176 393 138 141 148
119 -176 392 137 140 147
119 -176 392 136 139 146
120 -176 392 134 137 144
120 -175 391 133 136 143
120 -175 390 133 136 143
121 -175 390 132 135 142
122 -175 390 131 134 141
122 -174 389 130 133 140
123 -174 389 133 136 143
123 -174 389 135 138 145
123 -174 388 134 137 144
124 -173 387 134 137 144
124 -173 386 135 138 145
125 -173 386 135 138 145
125 -172 385 137 140 147
125 -172 385 136 139 146
126 -172 384 136 139 146
126 -172 384 135 138 145
127 -172 383 136 139 146
127 -171 382 137 140 147
127 -171 381 135 138 145
128 -171 381 133 136 143
128 -171 381 133 136 143
129 -170 380 136 139 146
129 -170 379 135 138 145
129 -170 379 135 138 145
130 -169 378 135 138 145
130 -169 378 136 139 146
131 -169 378 137 140 147
131 -169 377 137 140 147
131 -168 376 135 138 145
132 -168 375 134 137 144
132 -168 375 132 135 142
133 -168 375 130 133 140
133 -167 374 132 134 141
133 -167 373 135 137 144
134 -167 373 135 137 144
134 -167 373 136 138 145
135 -166 372 137 139 146
135 -166 372 137 139 146
135 -166 371 136 138 145
136 -165 370 133 135 142
136 -165 369 130 132 139
136 -165 369 131 133 140
137 -165 369 131 133 140
137 -165 368 131 133 140
138 -165 368 132 134 141
138 -164 367 132 134 141
139 -164 367 133 135 142
139 -164 367 134 136 143
140 -164 367 134 136 143
140 -164 366 134 136 143
140 -163 365 134 136 143
141 -163 365 135 137 144
141 -163 365 135 137 144
141 -163 364 136 138 145
142 -163 364 136 138 145
142 -162 363 136 138 145
143 -162 363 135 137 144
143 -162 362 133 135 142
143 -162 362 133 135 142
144 -161 361 134 136 143
144 -161 360 138 136 144
144 -161 360 138 133 142
145 -161 360 138 135 143
146 -161 360 139 136 143
146 -160 359 136 135 142
146 -160 359 133 135 141
146 -160 358 132 134 140
147 -160 358 130 133 139
147 -160 358 131 132 138
148 -159 357 135 132 139
148 -159 357 124 116 124
148 -159 356 106 91 101
148 -158 355 90 69 79
149 -158 355 85 58 69
149 -158 354 82 52 63
149 -158 353 82 49 61
149 -157 351 83 50 61
149 -156 350 80 47 57
149 -156 349 78 45 55
149 -155 348 76 43 53
149 -155 347 75 42 52
150 -154 346 73 40 50
151 -155 347 73 40 50
151 -155 347 72 39 49
-1365 -1373 3090 154 157 163
-1357 -1370 3083 152 155 161
-1348 -1366 3073 152 155 161
-1341 -1363 3068 154 157 163
-1333 -1360 3061 154 157 163
-1324 -1356 3051 156 159 165
-1316 -1353 3043 153 156 162
-346 -400 898 159 162 169
-344 -399 896 158 161 168
-342 -398 894 155 158 166
-340 -398 893 151 154 163
-320 -388 871 154 157 166
-318 -387 869 156 159 168
-316 -387 868 157 160 169
-314 -386 866 156 159 168
-312 -385 864 155 158 167
-310 -384 862 155 158 167
-308 -383 860 155 158 167
-305 -382 858 156 159 168
-304 -382 857 159 162 171
-302 -381 855 156 159 168
-300 -380 853 156 159 168
-298 -379 851 154 157 166
-296 -379 849 155 158 167
-294 -378 848 154 157 166
-292 -377 846 155 158 167
-290 -376 844 155 158 167
-288 -375 842 156 159 168
-281 -373 837 155 158 167
-279 -372 835 149 152 161
-277 -372 833 155 158 167
-275 -371 832 157 160 169
-273 -370 830 151 154 163
-272 -370 829 147 150 159
-269 -369 826 155 158 167
-268 -368 825 159 162 171
-260 -365 818 157 160 169
-253 -362 811 161 164 173
-252 -362 810 158 161 170
-250 -361 808 157 160 169
-248 -360 807 153 156 165
-247 -360 806 152 155 164
-245 -359 804 156 159 168
-243 -359 803 157 160 169
-241 -358 801 158 161 170
-240 -357 800 155 158 167
-238 -356 798 158 161 170
-236 -356 797 155 158 167
-234 -355 795 161 164 173
-233 -354 793 153 156 165
-231 -353 791 154 157 166
-229 -352 789 156 159 168
-227 -352 788 156 159 168
-226 -351 786 154 157 166
-224 -350 784 154 157 166
-222 -349 782 151 154 163
-220 -349 781 153 156 165
-219 -348 779 152 155 164
-217 -347 777 155 158 167
-215 -347 776 157 160 169
-214 -346 774 156 159 168
-212 -345 773 155 158 167
-211 -345 772 154 157 166
-209 -344 770 154 157 166
-207 -344 769 152 155 164
-206 -343 768 153 156 165
-204 -342 766 155 158 167
-202 -342 764 153 156 165
-201 -341 762 152 155 164
-199 -340 760 153 156 165
-197 -339 759 154 157 166
-196 -338 757 153 156 165
-194 -338 756 153 156 165
-193 -337 754 153 156 165
-191 -337 753 154 157 166
-189 -336 751 155 158 167
-188 -335 749 155 158 167
-186 -335 748 156 159 168
-185 -334 746 155 158 167
-183 -333 745 155 158 167
-182 -333 744 151 154 163
-180 -332 742 149 152 161
-179 -331 741 148 151 160
-177 -331 740 149 152 161
-176 -330 738 152 155 164
-174 -330 737 156 159 168
-173 -329 736 158 161 171
-171 -328 734 158 161 172
-170 -328 733 156 159 169
-168 -328 732 154 157 166
-167 -327 731 153 156 165
-165 -326 729 151 154 163
-164 -326 728 150 153 163
-163 -325 727 149 152 163
-161 -324 725 149 152 163
-160 -324 723 149 152 163
-158 -323 721 149 152 162
-156 -322 719 150 153 162
-155 -321 718 151 154 163
-153 -321 716 151 154 163
-152 -320 714 150 153 163
-150 -319 712 150 153 164
-149 -318 711 149 152 163
-148 -318 710 157 160 171
-146 -317 709 160 163 174
-145 -317 708 157 160 171
-144 -316 706 156 159 170
-142 -316 705 154 157 168
-141 -315 704 152 155 166
-139 -314 702 156 159 170
-138 -313 699 158 161 172
-136 -313 698 156 159 170
-135 -312 697 156 159 170
-134 -312 696 154 157 168
-132 -311 694 151 154 165
-131 -310 693 152 155 166
-130 -310 692 154 157 168
-128 -309 690 153 156 167
-127 -309 689 154 157 168
-126 -308 688 155 158 169
-124 -307 686 157 160 171
-123 -306 684 154 157 168
-121 -306 682 152 155 166
-120 -305 681 153 156 167
-118 -304 678 154 157 168
-117 -303 677 155 158 169
-116 -303 676 152 155 166
-115 -302 675 155 158 169
-114 -302 675 158 161 172
-112 -302 673 155 158 169
-111 -301 672 151 154 165
-110 -301 671 144 147 158
-109 -300 670 152 155 166
-107 -299 668 155 158 169
-106 -298 666 160 163 174
-105 -298 665 154 157 168
-103 -297 663 148 151 162
-102 -297 662 151 154 165
-101 -296 660 152 155 166
-99 -295 658 148 151 162
-98 -295 657 152 155 166
-97 -294 656 156 159 170
-96 -293 654 153 156 167
-94 -292 652 155 158 169
-93 -292 651 155 158 169
-92 -291 649 156 159 170
-91 -291 648 154 157 168
-89 -289 645 156 159 170
-88 -289 644 151 154 165
-87 -288 643 152 155 166
-86 -288 642 150 153 163
-84 -287 641 147 150 159
-83 -287 639 146 149 158
-82 -286 638 150 153 162
-81 -285 636 152 155 165
-80 -285 635 148 151 162
-79 -285 635 147 150 161
-78 -284 634 148 151 162
-76 -284 633 149 152 163
-75 -283 632 147 150 161
-74 -283 631 148 151 162
-73 -282 629 150 153 164
-72 -281 627 150 153 164
-71 -281 626 152 155 166
-69 -280 624 156 159 170
-68 -279 623 155 158 169
-67 -279 622 153 156 167
-66 -279 621 154 157 168
-65 -278 620 155 158 169
-64 -278 619 156 159 170
-63 -277 618 155 158 169
-62 -276 616 153 156 167
-60 -275 614 151 154 165
-59 -275 614 148 151 162
-58 -275 613 148 151 162
-57 -274 611 151 154 165
-56 -274 610 148 151 162
-55 -273 609 150 153 164
-54 -273 608 154 157 169
-53 -272 606 153 156 169
-52 -271 605 149 152 165
-51 -271 603 148 151 164
-50 -271 603 147 150 163
-49 -270 602 155 158 171
-48 -269 600 151 154 167
-46 -268 598 157 160 173
-45 -267 596 158 161 174
-44 -267 595 156 159 172
-43 -267 594 148 151 164
-42 -266 592 147 150 163
-41 -265 591 150 153 166
-40 -265 590 150 153 166
-39 -264 589 151 154 167
-38 -264 588 154 157 170
-37 -263 587 155 158 171
-36 -263 585 149 152 165
-35 -262 584 152 155 168
-34 -262 583 147 150 163
-33 -261 582 156 159 172
-32 -261 581 156 159 172
-31 -260 580 153 156 169
-30 -260 579 148 151 164
-29 -259 578 155 158 171
-28 -259 577 154 157 170
-27 -259 576 154 157 170
-26 -258 574 154 157 170
-25 -257 573 153 156 169
-24 -256 571 155 158 171
-23 -256 571 155 158 171
-22 -255 569 152 155 168
-21 -255 567 155 158 171
-20 -254 566 157 160 173
-20 -254 565 158 161 174
-19 -253 564 154 157 170
-18 -252 562 153 156 169
-17 -252 561 153 156 169
-16 -251 559 151 154 167
-15 -250 558 152 155 168
-14 -250 557 152 155 168
-13 -250 556 152 155 168
-12 -249 555 152 155 168
-11 -248 553 151 154 167
-10 -248 553 149 152 165
-9 -248 552 149 152 165
-8 -247 551 156 159 172
-8 -247 551 155 158 171
-7 -247 550 154 157 170
-6 -246 549 159 162 175
-5 -246 548 158 161 174
-4 -245 546 150 153 166
-3 -244 544 147 150 163
-2 -243 542 156 159 172
-1 -243 541 156 159 172
-1 -242 540 151 154 167
0 -242 540 151 154 167
1 -242 539 153 156 169
2 -241 537 148 151 164
3 -241 536 146 149 162
4 -240 535 150 153 166
5 -240 534 152 155 168
5 -239 532 152 155 168
6 -238 530 151 154 167
7 -237 529 151 154 167
8 -237 528 151 154 167
9 -237 527 151 154 167
10 -236 526 151 154 167
10 -236 525 148 152 165
11 -235 524 145 150 163
12 -235 523 151 156 169
13 -234 522 154 159 172
14 -234 521 154 159 172
14 -233 520 151 156 169
15 -233 520 150 155 168
16 -233 518 151 156 169
17 -232 517 151 156 169
18 -232 516 151 156 169
18 -231 515 150 155 168
19 -231 514 150 155 168
20 -230 513 152 157 170
21 -230 512 150 155 168
22 -230 512 147 152 165
22 -229 510 148 153 166
23 -228 509 146 151 164
24 -228 508 148 153 166
25 -228 507 148 153 166
25 -227 506 147 152 165
26 -227 505 146 151 164
27 -226 504 146 151 164
28 -226 503 147 152 165
28 -225 502 147 152 165
29 -225 501 146 151 164
30 -224 500 149 154 167
31 -224 499 148 153 166
31 -224 498 142 147 160
32 -223 497 140 145 158
33 -223 497 149 154 167
34 -223 496 152 157 170
34 -222 494 148 153 166
35 -221 493 149 154 167
36 -221 493 148 153 166
36 -221 492 146 151 164
37 -220 491 143 148 161
38 -220 490 140 145 158
39 -219 489 137 142 155
39 -219 488 139 144 157
40 -219 487 144 149 162
41 -218 486 147 152 165
41 -218 485 150 155 168
42 -217 484 153 158 171
43 -217 484 152 157 170
44 -217 484 148 153 166
44 -217 483 147 152 165
45 -217 483 147 152 165
46 -216 482 146 151 164
46 -215 480 146 151 164
47 -215 480 148 153 166
48 -215 479 147 152 165
48 -214 478 146 151 164
49 -214 478 143 148 161
50 -214 477 143 148 161
50 -214 476 142 147 160
51 -214 476 144 149 162
52 -213 475 153 158 171
52 -213 474 149 154 167
53 -212 472 138 143 156
54 -211 471 139 144 157
54 -211 470 145 150 163
55 -210 468 147 152 165
55 -209 467 143 148 161
56 -209 467 146 151 164
57 -209 466 148 153 166
58 -209 466 148 153 166
58 -209 466 145 150 163
59 -209 465 146 151 164
60 -209 465 144 149 162
60 -208 464 143 148 161
61 -208 463 144 149 162
61 -207 462 144 149 162
62 -207 461 136 141 154
63 -206 460 140 145 158
63 -206 460 142 147 160
64 -206 459 143 148 161
65 -205 458 142 147 160
65 -205 457 140 145 158
66 -204 456 143 148 161
66 -204 456 148 153 166
67 -204 455 146 151 164
68 -204 455 140 145 158
68 -204 454 147 152 165
69 -203 453 147 152 165
69 -203 452 139 144 157
70 -202 451 139 144 157
71 -202 451 144 149 162
71 -202 450 145 150 163
72 -201 449 145 150 163
72 -201 448 146 151 164
73 -201 448 145 150 163
74 -200 447 143 148 161
74 -200 446 142 147 160
75 -199 445 142 147 160
75 -199 445 142 147 160
76 -199 444 142 147 160
77 -199 443 142 146 159
77 -199 443 146 149 162
78 -199 443 142 145 158
78 -198 442 138 141 154
79 -197 440 137 140 153
79 -197 439 137 140 153
80 -197 439 137 141 153
81 -196 438 141 146 157
81 -196 437 144 149 160
82 -196 437 145 150 161
82 -195 436 144 149 160
83 -195 436 143 148 159
84 -195 436 143 148 159
84 -195 435 144 149 160
85 -194 434 143 148 159
85 -194 433 141 146 157
86 -194 433 140 145 156
86 -193 432 141 146 157
87 -193 432 141 146 157
87 -193 431 143 148 159
88 -193 430 143 148 159
88 -192 429 142 147 158
89 -192 429 143 148 159
90 -192 428 144 149 160
90 -191 427 147 152 163
91 -191 427 142 147 158
91 -191 426 140 145 156
92 -191 426 140 145 156
92 -190 425 140 145 156
93 -190 425 139 144 155
93 -190 424 140 145 156
94 -190 424 141 146 157
95 -189 423 140 144 155
95 -189 422 141 144 155
95 -188 421 140 143 154
96 -188 421 140 143 154
97 -188 421 143 146 157
97 -188 420 143 146 157
98 -188 419 144 147 158
98 -187 418 145 148 159
98 -187 417 143 146 156
99 -187 417 141 144 153
100 -186 416 140 143 152
100 -186 415 137 140 149
100 -185 414 135 138 147
101 -185 414 137 140 149
102 -185 414 140 143 152
102 -185 413 139 142 151
103 -184 412 139 142 152
103 -184 411 140 143 154
103 -183 410 137 140 151
104 -183 410 134 137 148
105 -183 410 135 138 148
105 -183 409 136 139 148
105 -182 408 139 142 151
106 -182 408 141 144 153
107 -182 408 143 146 155
107 -182 407 143 146 155
107 -182 406 143 146 155
108 -182 406 144 147 156
108 -181 405 143 146 155
109 -181 405 142 145 154
109 -181 404 142 145 154
110 -180 403 143 146 155
110 -180 403 143 147 156
111 -180 402 141 146 155
111 -180 402 142 147 156
112 -179 401 140 145 154
112 -179 401 141 146 155
113 -179 401 143 148 157
113 -179 400 141 146 155
114 -178 399 139 144 153
114 -178 399 137 142 151
115 -178 399 136 141 150
115 -178 398 137 142 151
116 -177 397 137 142 151
116 -177 397 136 141 150
117 -177 396 136 141 150
117 -176 395 134 139 148
117 -176 394 131 136 145
118 -176 394 130 135 143
118 -176 393 130 136 142
119 -175 392 131 135 142
119 -175 392 132 135 142
120 -175 392 134 137 144
120 -175 391 134 137 144
120 -174 390 133 136 143
121 -174 390 131 134 141
122 -174 390 130 133 140
122 -174 389 131 134 141
123 -174 389 135 138 145
123 -173 388 138 141 148
123 -173 388 136 139 146
124 -173 387 137 140 146
124 -172 386 139 141 147
124 -172 385 138 140 146
125 -172 385 140 142 149
126 -172 385 137 140 147
126 -171 384 138 141 148
126 -171 383 138 141 148
127 -171 383 138 141 148
127 -170 382 140 143 150
127 -170 381 138 141 148
128 -170 381 135 138 145
128 -170 381 136 139 146
129 -170 380 137 140 147
129 -169 379 136 139 146
129 -169 379 135 138 145
130 -169 378 135 138 145
130 -169 378 136 139 146
131 -168 377 137 140 147
131 -168 377 137 140 147
131 -168 376 136 139 146
132 -167 375 134 137 144
132 -167 375 131 134 141
133 -167 375 130 133 140
133 -167 374 134 137 144
134 -167 374 137 140 147
134 -166 373 136 139 146
134 -166 373 135 138 145
135 -166 372 136 139 146
135 -166 372 136 139 146
136 -166 372 135 138 145
136 -165 370 131 134 141
136 -165 370 131 133 140
136 -164 369 133 135 142
137 -164 369 133 135 142
138 -164 369 132 134 141
138 -164 368 133 135 142
138 -164 368 134 136 143
139 -164 367 135 137 144
139 -163 367 134 136 143
140 -163 367 133 135 142
140 -163 366 133 135 142
140 -163 365 133 135 142
141 -163 365 133 135 142
141 -163 365 135 137 144
141 -162 364 136 138 145
142 -162 363 136 138 145
142 -162 363 137 139 146
143 -162 363 136 138 145
143 -161 362 134 136 143
143 -161 362 134 136 143
144 -161 361 135 137 144
144 -160 360 136 136 144
144 -160 360 136 135 143
145 -160 360 136 136 144
146 -160 360 135 137 144
146 -160 360 133 136 143
146 -160 359 130 136 142
147 -160 359 129 135 141
147 -159 358 128 134 139
147 -159 358 131 133 139
148 -159 357 132 131 138
148 -159 357 123 115 122
148 -158 356 107 92 100
148 -158 355 94 73 82
149 -157 354 83 56 67
149 -157 353 84 53 64
149 -157 352 86 51 63
149 -156 350 85 50 60
149 -155 349 82 47 55
149 -155 349 79 44 52
149 -155 348 78 43 51
149 -154 347 76 41 49
150 -154 347 74 39 47
151 -154 347 74 39 47
151 -154 347 74 39 47
152 -154 347 72 37 45
153 -155 348 73 38 46
-1366 -1369 3093 152 155 161
-1359 -1367 3087 153 156 162
-1348 -1361 3074 154 157 163
-1340 -1357 3065 154 157 163
-1333 -1355 3060 152 155 161
-1324 -1351 3051 156 159 165
-340 -396 893 156 159 168
-318 -386 869 156 159 168
-315 -385 867 158 161 170
-314 -385 866 156 159 168
-312 -384 864 154 157 166
-310 -383 862 153 156 165
-308 -382 860 154 157 166
-305 -381 858 156 159 168
-300 -379 853 153 156 165
-297 -378 850 152 155 164
-296 -377 849 154 157 166
-294 -376 847 156 159 168
-292 -376 846 156 159 168
-290 -375 843 157 160 169
-288 -374 842 157 160 169
-286 -373 840 157 160 169
-283 -372 838 156 159 168
-281 -372 836 156 159 168
-279 -371 835 151 154 163
-277 -370 833 152 155 164
-275 -370 832 155 158 167
-273 -369 830 154 157 166
-272 -369 829 153 156 165
-270 -367 826 155 158 167
-268 -367 825 157 160 169
-253 -361 812 162 165 174
-252 -360 810 157 160 169
-250 -359 808 158 161 170
-248 -359 807 155 158 167
-246 -358 805 157 160 169
-245 -358 804 157 160 169
-243 -357 803 156 159 168
-241 -356 801 160 163 172
-240 -356 800 155 158 167
-238 -355 798 157 160 169
-236 -354 796 153 156 165
-234 -353 794 161 164 173
-233 -353 793 153 156 165
-230 -352 790 153 156 165
-229 -351 789 156 159 168
-227 -350 787 155 158 167
-226 -350 786 153 156 165
-224 -349 784 155 158 167
-222 -348 782 153 156 165
-220 -348 781 154 157 166
-219 -347 780 153 156 165
-217 -346 778 154 157 166
-215 -346 776 155 158 167
-214 -345 775 153 156 165
-212 -344 773 154 157 166
-211 -344 772 155 158 167
-209 -343 770 154 157 166
-207 -343 769 152 155 164
-206 -342 768 152 155 164
-204 -341 766 154 157 166
-203 -341 765 153 156 165
-201 -339 762 152 155 164
-199 -339 760 153 156 165
-198 -338 759 155 158 167
-196 -337 757 155 158 167
-194 -337 756 156 159 168
-193 -336 754 156 159 168
-191 -336 753 155 158 167
-189 -335 751 154 157 166
-188 -334 749 154 157 166
-186 -333 748 154 157 166
-185 -333 747 153 156 165
-183 -332 745 153 156 165
-182 -332 744 150 153 162
-180 -331 742 148 151 160
-179 -330 741 148 151 160
-177 -330 740 148 151 160
-176 -329 739 150 153 162
-174 -329 737 153 156 165
-173 -328 736 157 160 170
-171 -327 734 159 162 173
-170 -327 733 158 161 171
-168 -326 731 156 159 168
-167 -326 731 154 157 166
-166 -325 729 152 155 164
-164 -325 728 151 154 164
-163 -324 727 150 153 164
-161 -323 725 150 153 164
-160 -322 723 151 154 165
-158 -322 721 150 153 163
-157 -321 720 150 153 162
-155 -320 718 151 154 163
-154 -320 717 150 153 162
-152 -319 715 149 152 162
-151 -318 713 148 151 162
-149 -318 712 148 151 162
-148 -317 711 154 157 168
-147 -317 710 158 161 172
-145 -316 708 156 159 170
-144 -315 706 156 159 170
-142 -315 705 153 156 167
-141 -314 704 149 152 163
-139 -313 702 154 157 168
-138 -312 700 159 162 173
-136 -312 698 154 157 168
-135 -311 697 155 158 169
-134 -311 696 155 158 169
-132 -310 694 153 156 167
-131 -309 693 155 158 169
-130 -309 692 157 160 171
-128 -308 691 155 158 169
-127 -308 689 156 159 170
-126 -307 688 158 161 172
-124 -306 686 160 163 174
-123 -305 684 152 155 166
-121 -304 682 148 151 162
-120 -304 681 149 152 163
-119 -303 679 150 153 164
-117 -302 677 154 157 168
-116 -302 677 152 155 166
-115 -301 675 155 158 169
-114 -301 675 157 160 171
-112 -301 673 156 159 170
-111 -300 672 152 155 166
-110 -300 671 144 147 158
-108 -299 669 149 152 163
-107 -298 668 154 157 168
-106 -298 667 162 165 176
-105 -297 665 159 162 173
-103 -297 664 151 154 165
-102 -296 662 151 154 165
-101 -295 660 151 154 165
-99 -294 658 149 152 163
-98 -293 657 152 155 166
-97 -293 655 153 156 167
-96 -292 654 152 155 166
-94 -291 652 153 156 167
-93 -291 651 152 155 166
-92 -290 650 153 156 167
-91 -290 648 151 154 165
-89 -289 646 158 161 172
-88 -288 644 152 155 166
-87 -287 643 154 157 168
-86 -286 641 152 155 165
-84 -286 641 155 158 167
-83 -286 639 152 155 164
-82 -285 638 153 156 165
-81 -284 636 152 155 165
-80 -284 635 148 151 162
-79 -284 635 149 152 163
-77 -283 633 154 157 168
-76 -283 633 155 158 169
-75 -282 632 152 155 166
-74 -282 631 152 155 166
-73 -282 630 153 156 167
-72 -281 628 151 154 165
-71 -280 626 154 157 168
-69 -279 624 154 157 168
-68 -278 623 153 156 167
-67 -278 622 152 155 166
-66 -278 621 151 154 165
-65 -277 620 152 155 166
-64 -277 619 159 162 173
-63 -276 618 162 165 176
-62 -275 616 160 163 174
-60 -274 614 156 159 170
-59 -274 613 151 154 165
-58 -274 612 154 157 168
-57 -273 611 151 154 165
-56 -273 610 151 154 165
-55 -272 609 153 156 167
-54 -272 608 150 153 165
-53 -271 606 148 151 164
-52 -271 605 150 153 166
-51 -270 603 150 153 166
-50 -270 603 149 152 165
-49 -269 602 157 160 173
-48 -268 600 150 153 166
-47 -268 599 155 158 171
-45 -267 597 156 159 172
-44 -266 595 155 158 171
-43 -266 594 150 153 166
-42 -265 592 147 150 163
-41 -264 591 149 152 165
-40 -264 590 153 156 169
-39 -263 589 152 155 168
-38 -263 588 153 156 169
-37 -263 587 155 158 171
-36 -262 585 150 153 166
-35 -262 585 152 155 168
-34 -261 583 147 150 163
-33 -260 582 154 157 170
-32 -260 582 156 159 172
-31 -259 580 155 158 171
-30 -259 579 145 148 161
-29 -259 578 155 158 171
-28 -258 577 153 156 169
-27 -258 576 154 157 170
-26 -257 574 155 158 171
-25 -256 573 155 158 171
-24 -256 572 155 158 171
-23 -255 571 155 158 171
-22 -255 570 152 155 168
-21 -254 568 155 158 171
-20 -253 566 155 158 171
-20 -253 565 159 162 175
-19 -252 564 154 157 170
-18 -251 562 153 156 169
-17 -251 561 153 156 169
-16 -250 559 152 155 168
-15 -250 558 152 155 168
-14 -249 556 152 155 168
-13 -249 556 151 154 167
-12 -248 555 151 154 167
-11 -248 554 152 155 168
-10 -247 553 149 152 165
-9 -247 552 151 154 167
-8 -246 551 155 158 171
-8 -246 550 154 157 170
-7 -246 549 154 157 170
-6 -245 548 159 162 175
-5 -245 547 159 162 175
-4 -244 545 151 154 167
-3 -243 544 145 148 161
-2 -242 542 153 156 169
-1 -242 541 156 159 172
-1 -242 540 152 155 168
0 -241 539 151 154 167
1 -241 539 152 155 168
2 -241 538 148 151 164
3 -240 537 148 151 164
4 -239 535 150 153 166
5 -238 533 149 152 165
5 -238 532 150 153 166
6 -237 530 149 152 165
7 -237 529 150 153 166
8 -236 528 150 153 166
9 -236 528 151 154 167
10 -235 526 152 155 168
10 -235 525 149 153 166
11 -234 524 146 151 164
12 -234 523 152 157 170
13 -234 522 154 159 172
14 -233 521 155 160 173
14 -233 520 154 159 172
15 -233 520 152 157 170
16 -232 519 152 157 170
17 -231 517 152 157 170
18 -231 516 148 153 166
18 -230 515 149 154 167
19 -230 514 150 155 168
20 -229 513 151 156 169
21 -229 511 148 153 166
22 -229 511 147 152 165
22 -228 510 148 153 166
23 -228 509 147 152 165
24 -227 508 148 153 166
25 -227 508 149 154 167
25 -227 507 148 153 166
26 -226 505 147 152 165
27 -225 504 147 152 165
28 -225 503 149 154 167
28 -225 502 149 154 167
29 -224 501 149 154 167
30 -224 500 150 155 168
31 -223 499 150 155 168
31 -223 498 147 152 165
32 -222 497 142 147 160
33 -222 496 146 151 164
33 -221 495 148 153 166
34 -221 494 144 149 162
35 -220 493 147 152 165
36 -220 492 148 153 166
36 -220 492 146 151 164
37 -219 490 142 147 160
38 -219 489 138 143 156
39 -219 489 134 139 152
39 -218 488 136 141 154
40 -217 486 143 148 161
41 -217 486 152 157 170
41 -217 485 152 157 170
42 -216 484 152 157 170
43 -216 484 148 153 166
44 -216 484 145 150 163
44 -216 483 145 150 163
45 -216 482 146 151 164
46 -216 482 148 153 166
46 -215 481 149 154 167
47 -215 480 149 154 167
48 -214 479 147 152 165
48 -214 478 146 151 164
49 -214 478 144 149 162
50 -213 477 144 149 162
50 -213 476 145 150 163
51 -212 475 148 153 166
52 -212 475 156 161 174
52 -212 474 150 155 168
53 -211 472 141 146 159
54 -211 471 142 147 160
54 -210 470 145 150 163
55 -210 469 146 151 164
55 -209 467 143 148 161
56 -208 466 147 152 165
57 -208 466 150 155 168
58 -208 466 148 153 166
58 -208 466 143 148 161
59 -208 465 145 150 163
59 -207 464 143 148 161
60 -207 464 145 150 163
61 -207 463 144 149 162
61 -206 462 145 150 163
62 -206 461 139 144 157
63 -206 460 140 145 158
63 -205 459 140 145 158
64 -205 459 140 145 158
65 -205 458 141 146 159
65 -204 457 141 146 159
66 -204 457 143 148 161
66 -204 456 146 151 164
67 -203 455 146 151 164
68 -203 454 142 147 160
68 -203 454 147 152 165
69 -202 453 150 155 168
69 -202 452 142 147 160
70 -201 451 140 145 158
71 -201 450 145 150 163
71 -201 450 145 150 163
72 -201 449 145 150 163
72 -200 448 147 152 165
73 -200 447 147 152 165
74 -200 447 146 151 164
74 -199 445 145 150 163
75 -199 445 143 148 161
75 -199 445 142 147 160
76 -198 444 142 147 160
77 -198 443 144 148 161
77 -198 443 145 148 161
78 -198 443 143 146 159
78 -197 441 140 143 156
79 -196 440 139 142 155
79 -196 439 138 141 154
80 -196 438 137 141 153
81 -196 438 140 145 156
81 -195 437 143 148 159
82 -195 437 142 147 158
82 -195 436 142 147 158
83 -194 435 143 148 159
83 -194 435 144 149 160
84 -194 435 144 149 160
85 -194 434 143 148 159
85 -193 433 142 147 158
86 -193 433 142 147 158
86 -193 433 141 146 157
87 -193 432 141 146 157
87 -192 431 144 149 160
88 -192 430 143 148 159
88 -191 429 139 144 155
89 -191 428 140 145 156
90 -191 428 141 146 157
90 -191 427 143 148 159
91 -191 427 142 147 158
91 -190 426 141 146 157
92 -190 425 140 145 156
92 -190 425 139 144 155
93 -189 424 139 144 155
93 -189 424 140 145 156
94 -189 423 141 146 157
95 -189 423 141 145 156
95 -188 422 141 144 155
95 -188 421 141 144 155
96 -187 420 141 144 155
97 -187 420 143 146 157
97 -187 420 143 146 157
98 -187 419 144 147 158
98 -186 418 147 150 161
98 -186 417 144 147 157
99 -185 416 139 142 151
100 -185 416 137 140 149
100 -185 415 131 134 143
100 -185 414 130 133 142
101 -185 414 135 138 147
101 -184 413 139 142 151
102 -184 413 140 143 152
103 -184 412 140 143 153
103 -183 411 140 143 154
103 -183 410 135 138 149
104 -183 410 131 134 145
105 -183 410 132 135 145
105 -182 409 135 138 147
105 -182 408 139 142 151
106 -182 408 141 144 153
107 -182 408 141 144 153
107 -181 407 142 145 154
107 -181 406 142 145 154
108 -181 406 142 145 154
109 -181 406 142 145 154
109 -180 405 142 145 154
109 -180 404 142 145 154
110 -180 403 142 145 154
110 -180 403 142 146 155
111 -179 402 141 146 155
111 -179 402 141 146 155
112 -179 401 139 144 153
112 -179 401 140 145 154
113 -178 400 141 146 155
113 -178 400 140 145 154
114 -178 399 140 145 154
114 -178 399 139 144 153
115 -178 399 137 142 151
115 -177 398 138 143 152
116 -177 397 137 142 151
116 -177 397 136 141 150
117 -176 396 134 139 148
117 -176 395 132 137 146
117 -175 394 129 134 143
118 -175 394 127 132 140
118 -175 393 126 132 138
119 -174 392 128 132 139
119 -174 392 132 135 142
119 -174 391 134 137 144
120 -174 391 134 137 144
121 -174 391 132 135 142
121 -174 390 131 134 141
122 -174 390 130 133 140
122 -174 390 133 136 143
123 -173 389 136 139 146
123 -173 388 138 141 148
123 -173 388 137 140 147
124 -172 387 138 141 147
124 -172 386 142 144 150
125 -172 386 140 142 148
125 -171 385 139 141 148
126 -171 385 138 141 148
126 -171 384 139 142 149
126 -170 383 140 143 150
127 -170 383 140 143 150
127 -170 382 140 143 150
128 -170 382 139 142 149
128 -169 381 138 141 148
128 -169 381 138 141 148
129 -169 380 138 141 148
129 -168 379 137 140 147
130 -168 379 136 139 146
130 -168 379 136 139 146
130 -168 378 137 140 147
131 -168 377 137 140 147
131 -168 377 136 139 146
131 -167 376 135 138 145
132 -167 376 134 137 144
132 -167 375 134 137 144
133 -167 375 134 137 144
133 -166 374 136 139 146
134 -166 374 138 141 148
134 -166 374 137 140 147
134 -166 373 135 138 145
135 -165 372 134 137 144
135 -165 372 135 138 145
136 -165 372 133 136 143
136 -165 371 131 134 141
136 -164 370 134 136 143
136 -164 369 136 138 145
137 -164 369 135 137 144
138 -164 369 133 135 142
138 -163 368 133 135 142
138 -163 368 135 137 144
139 -163 367 134 136 143
139 -163 367 133 135 142
140 -163 367 134 136 143
140 -162 366 134 136 143
140 -162 365 134 136 143
141 -162 365 134 136 143
141 -162 365 135 137 144
141 -162 364 135 137 144
142 -161 363 136 138 145
142 -161 363 136 138 145
142 -161 362 135 137 144
143 -161 362 134 136 143
144 -161 362 134 136 143
144 -160 361 135 137 144
144 -160 360 137 137 145
144 -160 360 137 136 144
145 -160 360 136 136 144
146 -160 360 135 137 144
146 -160 360 133 136 143
146 -159 359 130 136 142
147 -159 359 129 135 141
147 -159 359 128 134 139
147 -159 358 131 133 139
148 -158 357 130 129 136
148 -158 356 123 115 122
148 -157 355 109 94 102
148 -157 354 97 76 85
148 -156 353 81 54 65
148 -156 352 84 53 64
148 -156 351 88 53 65
149 -155 350 86 51 61
149 -155 349 83 48 56
149 -155 349 80 45 53
149 -154 348 77 42 50
150 -154 348 76 41 49
150 -154 348 75 40 48
151 -154 348 76 41 49
152 -154 348 74 39 47
152 -154 348 71 36 44
153 -154 348 72 37 45
-1366 -1364 3092 151 154 160
-1359 -1362 3088 153 156 162
-1350 -1358 3078 155 158 164
-1340 -1353 3066 154 157 163
-1332 -1349 3058 153 156 162
-314 -383 866 158 161 170
-312 -382 864 156 159 168
-310 -381 862 153 156 165
-308 -381 860 152 155 164
-300 -378 853 153 156 165
-297 -376 850 153 156 165
-296 -376 849 155 158 167
-294 -375 847 157 160 169
-292 -375 846 157 160 169
-290 -373 843 157 160 169
-288 -373 842 156 159 168
-283 -371 838 156 159 168
-281 -370 836 156 159 168
-279 -369 834 154 157 166
-277 -369 833 153 156 165
-275 -368 831 153 156 165
-273 -368 830 156 159 168
-272 -367 829 158 161 170
-270 -366 826 155 158 167
-268 -366 825 153 156 165
-266 -365 823 154 157 166
-253 -360 812 162 165 174
-252 -359 810 158 161 170
-250 -358 808 159 162 171
-248 -358 807 155 158 167
-247 -357 806 158 161 170
-245 -356 804 155 158 167
-243 -356 803 151 154 163
-241 -355 801 158 161 170
-240 -355 800 156 159 168
-238 -354 798 155 158 167
-236 -353 796 152 155 164
-234 -352 794 161 164 173
-232 -351 792 155 158 167
-231 -351 791 156 159 168
-229 -350 788 159 162 171
-227 -349 787 158 161 170
-225 -348 785 155 158 167
-224 -347 783 155 158 167
-222 -347 782 154 157 166
-220 -347 781 154 157 166
-219 -346 780 154 157 166
-217 -345 778 155 158 167
-215 -344 776 155 158 167
-214 -344 775 153 156 165
-212 -343 773 155 158 167
-211 -343 772 155 158 167
-209 -342 770 154 157 166
-207 -341 769 153 156 165
-206 -341 768 152 155 164
-204 -340 766 153 156 165
-203 -340 765 153 156 165
-201 -339 763 152 155 164
-199 -338 761 154 157 166
-198 -337 759 160 163 172
-196 -336 757 155 158 167
-194 -336 756 156 159 168
-193 -335 754 157 160 169
-191 -334 752 156 159 168
-190 -333 751 155 158 167
-188 -333 749 154 157 166
-186 -332 748 153 156 165
-185 -332 747 152 155 164
-183 -331 745 153 156 165
-182 -330 744 151 154 163
-180 -330 742 150 153 162
-179 -330 742 150 153 162
-177 -329 740 149 152 161
-176 -328 739 148 151 160
-175 -328 738 150 153 162
-173 -327 736 153 156 166
-171 -326 734 156 159 170
-170 -326 733 156 159 170
-168 -325 731 156 159 170
-167 -325 731 154 157 168
-166 -324 729 153 156 167
-164 -323 727 153 156 167
-163 -323 726 152 155 166
-161 -322 725 153 156 167
-160 -321 723 154 157 168
-158 -320 721 153 156 167
-157 -320 720 151 154 165
-155 -319 718 151 154 165
-154 -319 717 151 154 165
-152 -318 715 151 154 165
-151 -317 713 150 153 164
-149 -317 712 151 154 165
-148 -316 711 154 157 168
-147 -316 710 158 161 172
-145 -315 708 156 159 170
-144 -314 706 155 158 169
-142 -313 705 153 156 167
-141 -313 704 148 151 162
-139 -312 702 151 154 165
-138 -311 700 157 160 171
-136 -310 698 153 156 167
-135 -310 697 156 159 170
-134 -310 696 155 158 169
-132 -309 695 154 157 168
-131 -308 693 157 160 171
-130 -308 692 158 161 172
-128 -307 691 156 159 170
-127 -306 689 159 162 173
-126 -306 688 157 160 171
-124 -305 686 158 161 172
-123 -304 684 147 150 161
-122 -304 683 142 145 156
-120 -303 681 144 147 158
-119 -302 679 147 150 161
-117 -301 677 151 154 165
-116 -301 676 151 154 165
-115 -301 676 152 155 166
-114 -300 675 153 157 169
-112 -299 673 153 158 171
-111 -299 671 151 156 169
-110 -298 670 147 152 165
-108 -298 669 148 153 166
-107 -297 668 150 155 168
-106 -297 667 156 160 172
-105 -296 666 161 164 175
-103 -296 664 155 158 169
-102 -295 663 152 155 166
-101 -294 660 151 154 165
-99 -293 658 150 153 164
-98 -292 657 151 154 165
-97 -292 655 151 154 165
-96 -291 654 152 155 166
-94 -291 653 151 154 165
-93 -290 651 151 154 165
-92 -289 650 151 154 165
-91 -289 648 150 153 164
-89 -288 646 160 163 174
-88 -287 644 154 157 168
-87 -286 643 154 157 168
-86 -285 641 152 155 166
-84 -285 640 155 158 169
-83 -285 639 155 158 170
-82 -284 638 155 158 171
-81 -284 637 152 155 168
-80 -283 636 149 152 165
-79 -283 635 151 154 167
-78 -282 634 154 157 170
-76 -282 633 154 157 170
-75 -282 633 156 159 172
-74 -281 631 154 157 170
-73 -281 630 154 157 170
-72 -280 628 151 154 167
-71 -279 627 155 158 171
-69 -278 625 150 153 166
-68 -278 624 148 151 164
-67 -278 623 151 154 167
-66 -277 622 152 155 168
-65 -277 621 148 151 164
-64 -276 620 155 158 171
-63 -275 618 163 166 179
-62 -275 617 164 167 180
-60 -274 614 158 161 174
-59 -273 613 152 155 168
-58 -273 612 155 158 171
-57 -272 610 150 153 166
-56 -272 610 152 155 168
-55 -271 609 153 156 169
-54 -270 607 151 154 167
-53 -270 606 152 155 168
-52 -270 605 154 157 170
-51 -269 604 155 158 171
-50 -268 602 156 159 172
-49 -268 602 158 161 174
-48 -268 601 151 154 167
-47 -267 599 155 158 171
-45 -266 597 153 156 169
-44 -266 596 153 156 169
-43 -265 594 154 157 170
-42 -264 592 154 157 170
-41 -263 591 153 156 169
-40 -263 590 154 157 170
-39 -263 590 153 156 169
-38 -262 588 153 156 169
-37 -262 587 156 159 172
-36 -261 586 150 153 166
-35 -261 585 151 154 167
-34 -260 584 148 151 164
-33 -259 582 154 157 170
-32 -259 581 157 160 173
-31 -259 580 157 160 173
-30 -258 579 147 150 163
-29 -258 578 155 158 171
-28 -257 577 152 155 168
-27 -257 576 155 158 171
-26 -256 574 156 159 172
-25 -255 573 156 159 172
-24 -255 572 158 161 174
-23 -255 571 156 159 172
-22 -254 570 151 154 167
-21 -253 568 153 156 169
-20 -252 566 154 157 170
-20 -252 565 160 163 176
-19 -251 564 157 160 173
-18 -251 562 153 156 169
-17 -250 560 153 156 169
-16 -249 559 152 155 168
-15 -249 558 152 155 168
-14 -248 556 152 155 168
-13 -248 556 151 154 167
-12 -247 555 153 156 169
-11 -247 554 155 158 171
-10 -247 553 150 153 166
-9 -246 552 151 154 167
-8 -246 551 152 155 168
-8 -245 550 151 154 167
-7 -245 549 151 154 167
-6 -244 548 156 159 172
-5 -243 546 158 161 174
-4 -243 545 154 157 170
-3 -243 544 147 150 163
-2 -242 542 150 153 166
-1 -241 541 155 158 171
-1 -241 540 153 156 169
0 -240 539 151 154 167
1 -240 538 151 154 167
2 -240 538 151 154 167
3 -239 537 152 155 168
4 -238 535 150 153 166
5 -238 533 150 153 166
5 -237 532 151 154 167
6 -236 530 150 153 166
7 -236 529 150 153 166
8 -235 528 151 154 167
9 -235 527 152 155 168
10 -234 526 153 156 169
10 -234 525 150 154 167
11 -234 524 147 152 165
12 -233 523 154 159 172
13 -233 522 154 159 172
14 -232 521 154 159 172
14 -232 520 155 160 173
15 -231 519 153 158 171
16 -231 518 151 156 169
17 -230 517 151 156 169
18 -230 516 149 154 167
18 -230 515 149 154 167
19 -229 513 150 155 168
20 -228 512 151 156 169
21 -228 511 147 152 165
21 -227 510 147 152 165
22 -227 510 152 157 170
23 -227 509 151 156 169
24 -226 508 149 154 167
25 -226 508 148 153 166
25 -226 507 148 153 166
26 -225 505 148 153 166
27 -225 504 149 154 167
28 -224 503 151 156 169
28 -224 502 151 156 169
29 -223 501 151 156 169
30 -223 500 150 155 168
31 -222 499 150 155 168
31 -222 498 151 156 169
32 -222 497 148 153 166
33 -221 496 147 152 165
