ply
format ascii 1.0
element vertex 1924
property float x
property float y
property float z
property uchar red
property uchar green
property uchar blue
end_header
56 -375 661 133 135 142
57 -374 659 133 135 142
58 -374 658 131 133 140
59 -373 657 128 130 137
60 -372 655 133 135 142
60 -371 653 131 133 140
61 -370 651 130 132 139
62 -369 650 130 132 139
63 -368 648 131 133 140
64 -367 646 133 135 142
65 -366 645 131 133 140
66 -366 644 124 126 133
67 -365 642 128 130 137
67 -363 640 140 142 149
68 -363 639 139 141 148
69 -362 637 132 134 141
70 -361 635 133 135 142
71 -360 634 133 135 142
72 -359 633 134 136 143
73 -359 632 134 136 143
73 -358 631 132 134 141
74 -358 630 131 133 140
75 -357 628 130 132 139
76 -356 627 130 130 138
77 -355 625 133 132 140
78 -354 624 130 130 138
78 -353 622 130 132 139
79 -351 619 140 142 149
80 -351 618 134 136 143
81 -350 617 134 136 143
82 -350 617 132 134 141
82 -349 615 128 130 137
83 -349 614 132 134 141
84 -348 613 130 132 139
85 -347 611 129 131 138
85 -346 609 127 129 136
86 -345 608 131 133 140
87 -344 606 135 137 144
87 -343 604 134 136 143
88 -342 603 133 135 142
89 -341 601 132 135 142
90 -341 600 130 133 140
90 -339 598 131 134 141
91 -339 597 132 135 142
92 -338 596 131 134 141
93 -338 595 130 132 139
93 -337 593 128 130 137
94 -336 592 130 132 139
95 -335 591 138 140 147
96 -335 590 133 135 142
96 -334 588 129 131 138
97 -333 587 129 131 138
98 -332 586 129 131 138
99 -332 585 135 137 144
99 -331 583 134 136 143
100 -330 582 134 136 143
101 -330 581 133 135 142
101 -328 579 134 136 143
102 -328 578 134 136 143
103 -327 576 132 134 141
103 -326 575 130 132 139
104 -325 573 133 135 142
105 -324 572 137 139 146
105 -324 571 136 138 145
106 -324 571 133 135 142
107 -323 569 134 136 143
107 -322 568 133 135 142
108 -322 567 131 133 140
109 -320 565 129 131 138
109 -319 563 126 128 135
110 -319 562 129 131 138
110 -318 561 141 143 151
111 -318 560 135 136 146
112 -317 559 133 134 144
112 -316 557 132 133 143
113 -315 556 133 134 144
114 -315 556 133 134 144
115 -315 555 132 134 142
115 -314 553 131 133 140
116 -313 552 130 132 139
117 -313 552 128 130 137
117 -312 551 129 131 138
118 -312 550 127 129 136
118 -311 549 127 129 136
119 -311 548 131 133 139
120 -310 547 134 136 142
120 -310 546 134 136 142
121 -308 544 135 137 143
121 -308 543 131 134 140
122 -307 542 131 133 139
123 -307 541 130 132 138
123 -305 539 130 132 138
124 -305 539 129 131 137
125 -305 538 128 130 136
125 -304 536 129 131 137
125 -303 534 128 130 136
126 -301 532 129 131 137
126 -301 531 130 132 138
127 -300 530 131 133 139
128 -300 529 131 133 139
128 -299 528 131 133 139
129 -299 527 130 132 138
129 -298 526 130 132 138
130 -297 525 130 132 139
130 -297 524 132 134 141
131 -296 523 133 135 142
131 -295 521 131 133 139
132 -295 520 131 133 139
132 -293 518 130 132 138
133 -293 517 125 127 133
133 -292 516 124 126 132
134 -291 514 126 128 134
134 -291 513 124 126 132
135 -290 512 128 130 136
135 -290 512 128 130 136
136 -289 511 129 131 137
137 -289 510 131 133 139
137 -288 508 134 136 142
138 -288 508 130 132 138
138 -287 507 129 131 137
139 -286 506 129 131 137
139 -286 505 129 131 137
140 -285 504 127 129 135
140 -285 503 127 129 135
141 -285 503 128 130 136
141 -284 501 126 128 134
142 -283 500 127 129 135
143 -283 500 134 136 142
143 -282 499 136 138 144
144 -282 498 133 135 141
144 -281 497 130 132 138
144 -281 496 135 137 143
145 -280 495 136 138 144
145 -280 494 128 130 136
146 -279 493 124 126 132
146 -278 492 127 128 134
147 -278 491 129 128 135
147 -277 490 128 129 135
148 -277 489 124 126 132
148 -276 487 122 124 130
148 -275 486 125 127 133
149 -274 485 128 130 136
150 -274 485 128 130 136
150 -274 484 126 128 134
151 -273 483 123 125 131
151 -273 482 124 126 132
152 -273 482 126 129 135
152 -272 481 128 131 137
152 -271 479 127 130 136
153 -270 478 125 128 134
153 -270 477 121 124 130
154 -269 476 119 122 128
154 -269 476 120 123 129
155 -269 475 122 125 131
155 -268 474 125 128 134
156 -267 473 126 129 135
156 -267 472 126 129 135
156 -266 471 127 130 136
157 -266 471 127 130 136
158 -266 471 130 133 139
158 -266 470 132 135 141
159 -265 469 130 133 139
159 -265 468 129 132 138
159 -264 467 127 130 136
160 -263 466 128 131 137
160 -263 465 128 131 137
161 -263 465 128 131 137
161 -262 464 129 132 139
162 -262 463 126 129 136
162 -262 463 127 130 137
163 -261 462 129 132 139
163 -260 461 129 132 139
164 -260 460 127 130 137
164 -260 460 126 129 136
165 -259 459 126 129 135
165 -259 459 124 127 133
166 -259 458 122 125 131
166 -259 458 123 126 132
167 -258 457 132 135 141
167 -258 457 134 137 143
168 -258 457 127 130 136
168 -258 456 125 128 134
169 -258 456 126 129 135
170 -258 456 125 128 134
171 -258 456 125 128 134
171 -257 456 125 128 134
172 -257 456 126 129 135
172 -257 455 126 129 135
173 -257 455 125 128 134
174 -257 455 125 128 134
174 -257 455 125 128 134
175 -257 455 126 129 135
176 -257 455 127 130 136
177 -257 455 129 132 138
177 -257 455 129 132 138
178 -256 454 126 129 135
178 -256 453 124 127 133
179 -256 453 125 128 134
179 -256 453 125 128 134
180 -256 453 124 127 133
181 -256 453 126 129 135
182 -256 454 124 127 133
183 -256 454 121 124 130
183 -256 454 122 125 131
-189 -179 321 166 202 236
-190 -180 322 166 202 236
-189 -180 322 168 204 238
-189 -180 322 167 203 237
-188 -180 322 167 203 237
-188 -181 323 168 204 238
-188 -181 323 165 203 235
-187 -181 323 159 198 229
-187 -181 323 154 191 218
-186 -181 323 149 185 209
-186 -181 323 140 170 191
-186 -181 324 125 149 167
-185 -181 324 114 134 152
-185 -181 324 119 134 152
-184 -181 324 119 129 146
-184 -182 325 131 137 152
-184 -182 326 149 156 165
-184 -182 326 152 159 164
-184 -183 327 149 158 161
-184 -183 328 149 159 161
-184 -183 328 147 157 162
-183 -183 328 146 155 163
-174 -595 1051 138 138 142
-171 -591 1045 138 138 142
-169 -589 1041 138 138 142
-167 -586 1036 137 137 141
-164 -583 1031 137 137 141
-161 -579 1023 138 138 142
-159 -575 1017 136 136 140
-156 -572 1011 133 132 138
-154 -568 1004 135 134 141
-151 -565 998 137 136 143
-149 -563 994 138 137 144
-147 -560 990 139 138 144
-145 -559 987 137 137 141
-143 -557 984 135 135 139
-141 -555 981 136 136 140
-139 -554 978 134 133 139
-137 -551 974 140 139 146
-135 -549 970 141 140 147
-133 -547 966 136 135 142
-130 -544 961 135 134 140
-128 -542 957 136 136 140
-126 -539 953 136 136 140
-124 -538 950 139 139 143
-123 -537 948 139 139 143
-121 -534 944 139 139 143
-119 -532 940 138 138 142
-117 -530 937 137 137 141
-115 -529 934 137 137 141
-113 -528 932 139 139 143
-111 -526 929 140 140 144
-109 -524 925 140 140 144
-108 -523 923 139 139 143
-106 -521 920 138 138 142
-104 -519 917 138 138 142
-102 -517 913 139 139 143
-100 -515 910 140 140 144
-99 -514 907 139 139 143
-97 -512 905 138 138 142
-95 -511 903 139 139 143
-94 -510 901 140 140 144
-92 -509 899 141 141 145
-90 -508 897 141 141 145
-89 -506 894 138 138 142
-87 -505 892 137 137 141
-85 -503 889 137 137 141
-84 -502 887 142 143 147
-82 -501 884 136 138 142
-80 -499 881 139 141 145
-79 -498 879 139 141 145
-77 -497 877 136 138 142
-76 -495 874 139 141 145
-74 -494 873 137 139 143
-73 -493 870 136 138 142
-71 -492 868 135 137 141
-69 -490 865 133 135 139
-68 -488 862 135 137 141
-66 -487 859 135 137 141
-65 -484 855 135 136 140
-63 -483 853 140 140 144
-62 -482 851 138 138 142
-60 -481 849 135 135 139
-59 -479 846 140 139 145
-57 -479 845 141 140 147
-56 -477 843 145 144 151
-54 -476 841 141 140 147
-53 -476 840 137 136 143
-51 -474 837 139 138 145
-50 -473 835 140 139 146
-48 -472 833 138 137 144
-47 -470 830 139 138 145
-45 -468 827 140 139 146
-44 -467 824 139 138 145
-43 -466 822 140 139 146
-41 -465 820 137 136 143
-40 -463 818 135 134 141
-38 -462 815 138 137 144
-37 -461 813 137 136 143
-36 -459 811 136 135 142
-34 -459 810 137 136 143
-33 -457 807 138 137 144
-31 -456 805 138 137 144
-30 -455 803 137 136 144
-29 -454 801 135 134 142
-27 -452 798 135 134 142
-26 -451 796 137 136 144
-25 -450 794 139 137 145
-23 -449 793 139 136 143
-22 -448 790 134 132 139
-21 -446 788 131 130 137
-20 -446 788 136 135 142
-18 -445 785 136 135 142
-17 -444 783 137 136 143
-16 -442 781 138 137 144
-14 -441 779 136 135 142
-13 -440 777 139 138 145
-12 -439 774 140 139 146
-11 -437 772 136 135 142
-9 -436 770 133 132 139
-8 -435 768 135 134 141
-7 -435 767 137 138 144
-6 -433 765 136 138 144
-4 -433 764 135 136 142
-3 -432 762 137 136 143
-2 -431 760 136 135 142
-1 -429 758 136 135 142
0 -428 756 136 135 142
2 -427 753 136 135 142
3 -425 751 137 136 143
4 -424 749 137 136 143
5 -424 748 135 134 141
6 -423 746 136 135 142
8 -422 744 136 135 142
9 -420 742 137 136 143
10 -419 740 138 137 144
11 -419 739 134 133 140
12 -417 736 133 132 139
13 -416 735 136 135 142
14 -416 734 134 133 140
16 -415 732 129 128 135
17 -414 730 135 134 141
18 -412 728 137 136 143
19 -411 726 138 137 144
20 -410 724 134 133 140
21 -409 722 136 135 142
22 -408 720 135 134 141
23 -407 718 138 137 144
24 -406 716 136 135 142
25 -405 714 135 134 141
26 -403 711 131 130 137
27 -402 710 131 130 137
29 -401 708 138 137 144
30 -401 707 139 138 145
31 -400 706 137 136 143
32 -399 704 137 136 144
33 -398 702 138 137 145
34 -397 701 140 139 147
35 -396 699 138 137 144
36 -395 698 135 134 141
37 -395 697 135 134 141
38 -394 695 135 134 141
39 -393 693 134 133 140
40 -391 690 131 132 138
41 -390 688 135 137 143
42 -389 686 136 138 144
43 -387 684 136 138 144
44 -386 681 133 135 141
45 -385 680 132 134 140
46 -384 678 132 134 139
47 -383 677 132 134 138
48 -383 676 135 137 142
49 -382 674 134 136 142
49 -381 673 135 137 143
50 -381 672 135 137 143
51 -379 670 135 137 143
52 -378 668 134 136 142
53 -378 667 132 134 141
54 -376 664 132 134 141
55 -376 663 132 134 141
56 -374 661 135 137 144
57 -373 659 136 138 145
58 -373 658 133 135 142
59 -372 656 129 131 138
60 -370 654 133 135 142
60 -370 653 132 134 141
61 -369 651 132 134 141
62 -368 649 134 136 143
63 -366 647 134 136 143
64 -366 646 133 135 142
65 -365 645 130 132 139
66 -365 644 125 127 134
67 -364 642 126 128 135
67 -363 641 133 135 142
68 -362 639 136 138 145
69 -361 637 134 136 143
70 -360 635 134 136 143
71 -358 633 135 137 144
72 -358 633 136 138 145
73 -358 632 136 136 144
73 -357 631 136 135 143
74 -357 630 134 133 141
75 -356 629 134 133 141
76 -355 627 134 134 142
77 -354 625 134 136 143
78 -353 624 130 132 139
78 -352 622 129 131 138
79 -350 619 141 143 150
80 -350 618 135 137 144
81 -349 617 134 136 143
81 -349 616 130 132 139
82 -348 615 127 129 136
83 -348 614 131 133 140
84 -346 612 130 132 139
85 -346 611 129 131 138
85 -345 609 127 129 136
86 -344 607 128 130 137
87 -343 606 135 137 144
87 -342 604 137 139 146
88 -341 603 134 136 143
89 -340 601 135 137 144
90 -340 600 133 135 142
91 -339 599 134 136 143
91 -338 597 134 136 143
92 -338 597 133 135 142
93 -337 595 132 134 141
94 -336 594 131 133 140
94 -335 592 132 134 141
95 -335 592 137 139 146
96 -334 590 132 134 141
96 -333 589 126 128 135
97 -332 587 126 128 135
98 -331 585 126 128 135
99 -331 585 134 136 143
99 -330 583 135 137 144
100 -329 582 135 137 145
101 -329 581 135 136 146
101 -328 579 137 138 148
102 -327 578 137 138 148
103 -326 576 134 135 145
103 -325 575 130 131 141
104 -325 574 134 136 144
105 -324 572 140 142 149
105 -323 571 137 139 146
106 -322 570 133 135 142
107 -322 570 135 137 144
107 -321 568 134 136 143
108 -320 566 132 134 141
109 -320 565 129 131 138
109 -318 563 125 127 134
110 -317 561 130 132 139
110 -317 560 141 143 150
111 -317 560 134 136 143
112 -316 559 133 135 143
112 -315 557 132 133 143
113 -314 556 132 134 142
114 -314 555 130 132 139
115 -314 555 130 132 139
115 -313 553 130 132 139
116 -312 552 128 130 137
116 -312 551 129 131 138
117 -312 551 130 132 139
118 -311 550 129 131 138
119 -310 549 127 129 136
119 -310 548 130 132 139
120 -309 547 133 135 142
120 -309 546 135 137 144
121 -308 544 135 137 144
121 -307 543 132 135 142
122 -306 542 132 134 141
123 -306 541 131 133 140
123 -305 540 129 131 138
124 -304 538 128 130 137
124 -304 537 127 129 136
125 -303 536 127 129 135
125 -302 534 127 129 135
126 -301 532 130 132 138
126 -300 531 133 134 140
127 -299 529 134 133 140
128 -299 529 133 132 139
128 -298 528 132 131 138
129 -298 527 131 132 138
129 -297 526 131 133 139
130 -297 525 131 133 139
130 -295 523 131 133 139
131 -295 522 131 133 139
131 -294 521 132 134 140
132 -293 519 131 133 139
132 -293 518 130 132 138
132 -291 516 128 130 136
133 -291 516 125 127 133
134 -290 514 127 129 135
134 -290 513 125 127 133
135 -289 512 128 130 137
135 -289 511 129 131 138
136 -289 511 130 132 139
137 -288 510 133 135 142
137 -287 509 138 140 147
138 -287 508 132 134 141
138 -286 507 130 132 138
139 -286 506 129 131 135
139 -285 505 128 130 135
140 -285 504 127 129 135
140 -283 502 127 129 135
141 -283 502 129 131 137
141 -283 501 126 128 134
142 -282 500 124 126 132
143 -282 500 131 133 139
143 -282 499 135 137 143
144 -281 498 130 132 138
144 -281 497 128 130 136
144 -280 496 132 134 140
145 -279 495 131 133 139
145 -279 494 125 127 134
146 -278 493 124 126 133
146 -278 492 126 128 135
147 -277 491 129 131 137
147 -276 489 128 130 136
148 -276 489 124 126 132
148 -275 487 122 124 130
148 -274 486 124 126 132
149 -274 485 125 127 133
150 -274 485 125 127 133
150 -273 484 125 127 133
151 -272 483 123 125 131
151 -272 482 125 127 133
152 -272 482 127 129 135
152 -271 481 129 131 137
153 -271 480 129 131 137
153 -270 478 127 129 135
153 -269 477 125 127 133
154 -268 476 122 124 130
154 -268 476 123 125 131
155 -268 475 125 127 133
155 -267 474 126 128 134
156 -267 473 127 129 135
156 -266 472 128 130 136
156 -266 471 126 128 134
157 -265 470 126 129 135
158 -265 470 127 130 136
158 -265 470 130 133 139
159 -264 469 129 132 138
159 -264 468 129 132 138
159 -263 467 130 133 139
160 -263 466 127 130 136
160 -262 465 125 128 134
161 -262 465 127 130 136
161 -262 464 130 132 138
162 -261 463 128 130 136
162 -261 463 128 130 136
163 -260 462 129 131 137
164 -260 462 129 131 137
164 -260 461 126 129 135
164 -259 460 125 128 134
165 -259 460 124 127 133
165 -259 459 123 126 132
166 -258 458 121 124 130
166 -257 457 121 124 130
167 -257 457 130 133 139
167 -257 456 133 136 142
168 -257 456 128 131 137
168 -257 456 127 130 136
169 -257 456 128 131 137
170 -257 456 127 130 136
171 -257 456 126 129 135
171 -256 455 126 129 135
172 -256 455 126 129 135
172 -256 455 126 129 135
173 -256 455 126 129 135
174 -256 455 125 128 134
175 -256 455 125 128 134
175 -256 455 125 128 134
176 -256 455 126 129 135
177 -256 455 129 132 138
177 -256 455 129 132 138
178 -256 454 127 130 136
178 -255 453 126 129 135
179 -255 453 129 132 138
179 -255 453 131 134 140
180 -255 453 130 133 139
181 -255 454 130 133 139
181 -255 453 126 129 135
182 -255 453 122 125 131
183 -255 454 122 125 131
-190 -179 321 165 201 235
-189 -179 321 167 203 237
-190 -179 322 167 203 237
-189 -179 322 169 205 239
-189 -179 322 167 203 237
-188 -179 322 165 201 235
-188 -179 322 169 205 239
-188 -180 323 165 203 235
-187 -180 323 161 200 231
-187 -180 323 156 193 220
-186 -180 323 148 184 208
-186 -180 323 136 166 187
-186 -181 324 121 145 163
-185 -181 324 114 134 152
-185 -181 325 121 136 154
-185 -181 325 119 129 146
-184 -181 325 131 137 152
-184 -182 326 149 156 165
-185 -182 327 151 158 163
-184 -182 327 148 157 160
-184 -183 328 151 161 163
-184 -183 328 148 158 163
-183 -183 328 146 155 163
-172 -590 1046 139 139 143
-169 -587 1041 140 140 144
-167 -585 1037 139 139 143
-164 -582 1032 137 137 141
-162 -578 1024 137 137 141
-159 -574 1018 138 138 142
-156 -571 1011 135 134 140
-154 -567 1005 134 133 140
-151 -564 999 135 134 141
-149 -562 995 138 137 144
-147 -559 991 140 139 145
-145 -557 987 138 138 142
-143 -555 984 138 138 142
-141 -554 981 138 138 142
-139 -551 977 133 132 138
-137 -550 974 140 139 146
-135 -548 970 140 139 146
-133 -545 966 135 134 141
-130 -542 960 137 136 142
-128 -540 957 137 137 141
-126 -537 952 137 137 141
-124 -536 949 139 139 143
-122 -535 947 137 137 141
-120 -532 943 139 139 143
-119 -531 940 140 140 144
-117 -529 937 137 137 141
-115 -527 934 135 135 139
-113 -526 932 137 137 141
-111 -525 929 136 136 140
-110 -523 926 141 141 145
-108 -521 923 140 140 144
-106 -519 920 138 138 142
-104 -518 917 137 137 141
-102 -516 913 138 138 142
-100 -514 910 140 140 144
-99 -513 908 140 140 144
-97 -511 905 140 140 144
-95 -510 903 141 141 145
-94 -509 901 141 141 145
-92 -508 899 141 141 145
-90 -507 897 143 143 147
-89 -505 894 138 138 142
-87 -503 891 138 138 142
-85 -502 889 133 133 137
-84 -501 887 138 139 143
-82 -500 885 136 138 142
-81 -498 882 138 140 144
-79 -497 880 139 141 145
-77 -495 877 136 138 142
-76 -494 875 138 140 144
-74 -493 873 136 138 142
-73 -491 870 136 138 142
-71 -490 867 135 137 141
-69 -489 865 135 137 141
-68 -487 862 134 136 140
-66 -485 859 133 135 139
-65 -483 855 135 136 140
-63 -482 853 140 140 144
-62 -481 851 139 139 143
-60 -480 849 135 135 139
-59 -478 847 138 137 143
-57 -477 845 139 138 145
-56 -476 843 145 144 151
-54 -475 841 142 141 148
-53 -474 839 138 137 144
-51 -473 837 140 139 146
-50 -472 835 140 139 146
-48 -471 833 139 138 145
-47 -469 830 143 142 149
-45 -467 827 141 140 147
-44 -466 825 139 138 145
-43 -464 822 140 139 146
-41 -463 820 137 136 143
-40 -462 818 137 136 143
-38 -460 815 139 138 145
-37 -459 813 136 135 142
-36 -458 811 134 133 140
-34 -457 809 135 134 141
-33 -456 807 135 134 141
-31 -455 805 137 136 143
-30 -453 802 138 137 145
-29 -453 801 136 135 143
-27 -451 799 137 136 144
-26 -450 796 138 137 145
-25 -449 794 138 136 144
-23 -447 792 140 137 144
-22 -447 791 136 134 141
-21 -446 789 134 133 140
-19 -445 787 139 138 145
-18 -444 786 139 138 145
-17 -442 783 139 138 145
-16 -441 781 138 137 144
-14 -440 779 137 136 143
-13 -439 777 137 136 143
-12 -437 774 140 139 146
-11 -436 772 138 137 144
-9 -435 770 134 133 140
-8 -434 768 136 135 142
-7 -433 767 138 139 145
-6 -433 766 136 138 144
-4 -432 764 136 137 143
-3 -431 762 137 136 143
-2 -429 760 137 136 143
-1 -428 758 137 136 143
0 -427 756 138 137 144
2 -426 754 138 137 144
3 -424 751 139 138 145
4 -423 749 137 136 143
5 -423 748 135 134 141
6 -422 746 135 134 141
8 -420 744 135 134 141
9 -419 742 136 135 142
10 -418 740 137 136 143
11 -418 739 135 134 141
12 -416 737 133 132 139
13 -415 735 135 134 141
14 -415 734 135 134 141
16 -414 732 125 124 131
17 -412 730 134 133 140
18 -411 728 138 137 144
19 -410 726 142 141 148
20 -409 724 139 138 145
21 -408 722 140 139 146
22 -407 720 137 136 143
23 -406 718 139 138 145
24 -404 715 137 136 143
25 -403 714 136 135 142
26 -402 711 130 129 136
27 -401 710 130 129 136
29 -400 708 137 136 143
30 -399 706 141 140 147
31 -398 705 136 135 142
32 -398 704 134 133 141
33 -397 702 134 133 141
34 -396 701 136 135 143
35 -395 699 136 135 142
36 -394 698 135 134 141
37 -394 697 136 135 142
38 -392 694 138 137 144
39 -391 692 137 136 143
40 -390 690 134 135 141
41 -388 687 135 137 143
42 -387 685 134 136 142
43 -386 683 134 136 142
44 -385 681 132 134 140
45 -384 679 131 133 139
46 -383 678 134 136 141
47 -382 677 136 138 142
48 -382 676 139 141 146
49 -381 674 137 139 145
49 -380 672 136 138 144
50 -379 671 134 136 142
51 -378 669 138 140 146
52 -377 668 138 140 146
53 -376 666 132 134 141
54 -375 664 132 134 141
55 -374 662 134 136 143
56 -373 661 134 136 143
57 -372 659 139 141 148
58 -372 658 137 139 146
59 -371 656 131 133 140
60 -370 655 135 137 144
60 -369 653 133 135 142
61 -368 651 133 135 142
62 -367 650 137 139 146
63 -365 647 135 137 144
64 -365 646 132 134 141
65 -364 645 131 133 140
66 -363 643 130 132 139
67 -363 642 129 131 138
67 -362 641 131 133 140
68 -361 639 134 136 143
69 -360 637 133 135 142
70 -359 635 132 134 141
71 -358 634 135 137 144
72 -357 632 136 138 145
73 -357 632 136 136 144
73 -356 631 136 135 143
74 -356 630 134 133 141
75 -355 628 134 133 141
76 -354 627 136 136 144
77 -353 625 136 138 145
77 -352 623 129 131 138
78 -351 622 126 128 135
79 -349 619 139 141 148
80 -349 618 136 138 145
81 -348 617 137 139 146
81 -347 615 132 134 141
82 -347 614 130 132 139
83 -347 614 130 132 139
84 -345 612 129 131 138
85 -345 611 131 133 140
85 -344 609 128 130 137
86 -343 608 126 128 135
87 -342 606 135 137 144
88 -342 605 140 142 149
88 -340 603 137 139 146
89 -339 601 135 137 144
90 -339 600 134 136 143
91 -338 599 135 137 144
91 -338 598 134 136 143
92 -337 597 134 136 143
93 -336 596 133 135 142
94 -335 594 130 132 139
94 -335 593 130 132 139
95 -334 592 129 131 138
96 -333 590 129 131 138
96 -332 589 127 129 136
97 -331 587 129 131 138
98 -330 585 129 131 138
99 -330 585 136 138 145
99 -329 583 134 136 143
100 -328 581 134 136 144
100 -327 580 136 137 147
101 -327 579 137 138 148
102 -326 578 138 139 149
103 -325 576 135 136 146
103 -324 574 129 130 140
104 -324 574 133 135 143
105 -323 572 138 140 147
105 -322 571 133 135 142
106 -322 570 129 131 138
107 -321 569 132 134 141
107 -320 568 132 134 141
108 -319 566 132 134 141
108 -318 564 127 129 136
109 -318 563 123 125 132
110 -316 561 132 134 141
110 -316 560 143 145 152
111 -315 559 134 136 143
112 -315 559 133 135 143
112 -314 557 132 133 143
113 -314 556 131 133 141
114 -313 555 129 131 138
114 -312 554 129 131 138
115 -312 553 128 130 137
116 -311 552 126 128 135
116 -311 551 130 132 139
117 -311 551 132 134 141
118 -310 550 131 133 140
119 -310 549 128 130 137
119 -309 548 128 130 137
120 -308 547 131 133 140
120 -307 545 134 136 143
121 -307 544 134 136 143
121 -306 543 134 137 144
122 -306 542 134 136 143
123 -304 540 131 133 140
123 -304 539 128 130 137
124 -303 538 127 129 136
124 -302 536 126 128 135
125 -302 535 126 128 134
125 -300 533 128 130 136
126 -300 532 131 133 139
126 -299 531 134 135 141
127 -299 530 136 135 142
128 -298 529 134 133 140
128 -298 528 131 130 137
129 -297 527 131 132 138
129 -296 526 132 134 140
130 -296 525 133 135 141
130 -295 523 130 132 138
131 -294 521 130 132 138
131 -293 520 132 134 140
132 -292 519 131 133 139
132 -292 518 132 134 140
133 -291 516 133 135 141
133 -290 515 129 131 137
134 -290 515 128 130 136
134 -289 513 125 127 133
135 -288 512 127 129 136
135 -288 511 130 132 139
136 -287 510 131 133 140
137 -287 510 135 137 144
137 -287 509 142 144 151
138 -286 508 134 136 143
138 -286 507 131 133 139
138 -284 505 134 136 140
139 -284 505 129 131 136
139 -283 503 128 130 136
140 -283 502 128 130 136
140 -282 501 130 132 138
141 -282 501 128 130 136
142 -281 500 122 124 130
142 -281 499 129 131 137
143 -280 498 133 135 141
143 -280 497 126 128 134
144 -279 496 123 125 131
144 -279 495 126 128 134
145 -278 494 124 126 132
145 -277 493 121 123 130
146 -277 493 124 126 133
146 -277 492 127 129 136
147 -276 491 130 132 138
147 -275 489 129 131 137
148 -275 488 124 126 132
148 -274 487 122 124 130
149 -274 487 124 126 132
149 -273 486 124 126 132
150 -273 485 123 125 131
150 -272 484 125 127 133
151 -272 483 125 127 133
151 -271 482 126 128 134
151 -271 481 127 129 135
152 -271 481 128 130 136
153 -270 480 129 131 137
153 -269 478 130 132 138
153 -268 477 130 132 138
154 -268 476 129 131 137
154 -268 476 131 133 139
155 -267 475 131 133 139
155 -267 474 127 129 135
156 -266 473 127 129 135
156 -265 472 127 129 135
156 -265 471 124 126 132
157 -264 470 124 127 133
158 -264 470 125 128 134
158 -264 469 126 129 135
158 -263 468 128 131 137
159 -263 467 130 133 139
159 -263 467 131 134 140
160 -262 466 125 128 134
160 -261 465 119 122 128
161 -261 464 123 126 132
161 -261 464 125 127 133
162 -261 464 128 130 136
162 -260 463 128 130 136
163 -260 463 127 129 135
164 -260 462 127 129 135
164 -259 461 126 129 135
164 -258 460 125 128 134
165 -258 460 123 126 132
165 -258 459 123 126 132
166 -257 458 121 124 130
166 -257 457 121 124 130
166 -256 456 129 132 138
167 -256 456 132 135 141
168 -256 456 129 132 138
169 -256 456 128 131 137
169 -256 456 129 132 138
170 -256 455 128 131 137
170 -256 455 127 130 136
171 -256 455 127 130 136
172 -256 455 126 129 135
172 -255 454 125 128 134
173 -255 454 125 128 134
173 -255 454 125 128 134
174 -255 454 124 127 133
175 -255 454 123 126 132
176 -255 455 127 130 136
177 -255 455 129 132 138
177 -255 455 128 131 137
178 -255 454 125 128 134
178 -254 453 124 127 133
178 -254 452 127 130 136
179 -254 453 130 133 139
180 -254 453 131 134 140
181 -254 453 132 135 141
181 -254 453 127 130 136
182 -254 453 123 126 132
183 -254 453 122 125 131
-190 -178 321 164 203 236
-190 -178 321 165 204 237
-190 -179 322 164 203 236
-190 -179 322 165 204 237
-189 -179 322 167 206 239
-189 -179 322 167 206 239
-188 -179 322 166 205 238
-188 -179 322 164 203 236
-187 -179 322 164 202 232
-187 -180 323 161 198 225
-187 -180 323 161 195 221
-186 -180 323 149 181 204
-186 -180 323 136 163 184
-185 -180 323 122 144 163
-185 -180 324 113 132 148
-185 -181 325 117 132 147
-185 -181 325 117 130 142
-184 -181 325 131 142 151
-184 -181 326 144 155 162
-185 -182 327 150 160 165
-184 -182 327 149 160 165
-184 -182 328 150 161 166
-184 -183 329 148 160 165
-184 -183 329 146 159 164
-174 -592 1052 139 138 145
-172 -589 1046 138 137 144
-169 -586 1041 138 137 144
-167 -584 1038 139 138 145
-164 -580 1031 139 138 145
-162 -577 1025 138 137 143
-159 -573 1018 138 138 142
-156 -569 1011 139 139 143
-154 -566 1005 139 139 143
-151 -562 999 137 137 141
-149 -560 995 137 137 141
-147 -558 991 138 138 142
-145 -556 987 138 138 142
-143 -554 984 140 140 144
-141 -552 981 139 139 143
-139 -550 977 137 137 141
-137 -548 973 137 137 141
-135 -546 970 139 139 143
-133 -544 966 139 139 143
-130 -540 960 139 139 143
-128 -538 956 139 139 143
-126 -536 952 138 138 142
-124 -534 948 137 137 141
-122 -533 946 139 139 143
-120 -530 942 138 138 142
-119 -529 940 137 137 141
-117 -528 937 137 137 141
-115 -526 934 138 138 142
-113 -525 932 138 138 142
-111 -523 929 137 137 141
-110 -521 926 140 140 144
-108 -520 923 141 141 145
-106 -518 920 141 141 145
-104 -516 916 140 140 144
-102 -515 914 140 140 144
-100 -512 910 140 140 144
-99 -511 908 139 139 143
-97 -510 906 140 140 144
-95 -509 904 141 141 145
-94 -508 902 141 141 145
-92 -507 900 141 141 145
-90 -505 897 141 141 145
-89 -503 894 140 140 144
-87 -502 891 139 139 143
-85 -501 889 137 137 141
-84 -499 886 136 136 140
-82 -498 884 137 137 141
-81 -497 882 140 140 144
-79 -496 880 144 144 148
-77 -495 878 143 143 147
-76 -493 875 138 138 142
-74 -492 873 139 139 143
-73 -490 870 141 141 145
-71 -489 868 138 138 142
-69 -487 865 138 138 142
-68 -486 863 139 139 143
-66 -484 859 139 139 143
-65 -482 856 137 137 141
-63 -481 853 139 139 143
-62 -479 851 139 139 143
-60 -478 849 136 136 140
-59 -477 847 137 136 142
-57 -476 845 135 134 141
-56 -475 844 139 138 145
-54 -474 841 144 143 150
-53 -473 839 145 144 151
-51 -472 837 141 140 147
-50 -470 835 140 139 146
-48 -469 833 142 141 148
-47 -468 830 142 141 148
-45 -466 828 139 138 145
-44 -465 825 142 141 148
-43 -464 823 139 138 145
-41 -462 820 139 138 145
-40 -461 818 138 137 144
-38 -459 815 136 135 142
-37 -458 813 139 138 145
-36 -457 811 136 135 142
-34 -456 809 137 136 143
-33 -454 806 136 135 142
-31 -453 804 135 134 141
-30 -452 802 135 134 141
-29 -451 800 136 135 142
-27 -450 799 137 136 144
-26 -449 797 139 138 146
-25 -447 794 141 140 148
-23 -447 793 138 137 144
-22 -446 791 139 138 145
-21 -445 789 136 135 142
-19 -443 787 139 138 145
-18 -443 786 142 141 148
-17 -442 784 138 137 144
-16 -441 782 136 135 142
-14 -440 780 137 136 143
-13 -438 777 138 137 144
-12 -437 775 137 136 143
-11 -435 772 138 137 144
-9 -434 771 136 135 142
-8 -433 768 136 135 142
-7 -432 767 138 137 144
-6 -432 766 137 136 143
-4 -430 764 140 139 146
-3 -429 762 141 140 147
-2 -428 759 139 138 145
-1 -427 757 139 138 145
0 -426 756 138 137 144
2 -425 754 137 136 143
3 -423 751 136 135 142
4 -422 749 137 136 143
5 -421 748 137 136 143
6 -421 747 135 134 141
8 -419 744 135 134 141
9 -418 742 135 134 141
10 -417 740 136 135 142
11 -416 739 135 134 141
12 -415 736 134 133 140
13 -414 735 134 133 140
14 -414 734 135 134 141
16 -412 731 131 130 137
17 -411 730 131 130 137
18 -410 727 132 131 138
19 -409 725 144 143 150
20 -407 723 137 136 143
21 -407 722 139 138 145
22 -405 719 138 137 144
23 -404 717 138 137 144
24 -403 715 140 139 146
25 -402 713 136 135 142
26 -401 711 131 130 137
27 -400 710 132 131 138
29 -399 708 138 137 144
30 -398 706 140 139 146
31 -397 705 137 136 143
32 -397 704 129 128 135
33 -396 702 132 131 138
34 -395 701 135 134 141
35 -394 700 138 137 144
36 -393 698 136 135 142
37 -392 696 135 134 141
38 -391 694 137 136 143
39 -390 692 139 138 145
40 -389 690 141 140 147
41 -387 687 139 138 145
42 -386 685 137 138 144
43 -385 683 134 136 142
44 -384 681 133 135 141
45 -383 679 132 134 140
46 -382 678 131 133 139
47 -381 676 132 134 140
48 -380 675 129 131 137
49 -380 674 132 134 140
49 -379 672 128 130 136
50 -378 671 130 132 138
51 -377 669 135 137 143
52 -376 667 133 135 141
53 -375 666 130 132 139
54 -374 664 132 134 141
55 -373 662 135 137 144
56 -372 661 135 137 144
57 -371 659 140 142 149
58 -371 658 137 139 146
59 -370 657 133 135 142
60 -369 655 135 137 144
60 -368 653 131 133 141
61 -367 652 135 136 146
62 -366 650 139 141 149
63 -365 648 135 137 144
64 -364 646 136 138 145
65 -363 645 137 139 146
66 -363 644 133 135 142
67 -362 642 134 136 143
67 -361 641 130 132 139
68 -360 639 131 133 140
69 -358 636 134 136 143
70 -358 635 133 135 142
71 -357 634 136 138 145
72 -356 633 138 140 147
73 -356 632 136 138 145
73 -355 631 133 135 142
74 -355 630 137 139 146
75 -354 628 137 139 146
76 -353 627 137 139 146
77 -352 625 138 140 147
77 -351 623 132 134 141
78 -350 621 131 133 140
79 -349 619 134 136 143
80 -348 618 135 137 144
80 -347 616 136 138 145
81 -346 615 135 137 144
82 -346 614 133 135 142
83 -345 613 134 136 143
84 -345 612 130 132 139
84 -343 610 132 134 141
85 -343 609 130 132 139
86 -342 608 131 133 140
87 -342 607 133 135 142
88 -341 605 141 143 150
88 -339 603 136 138 145
89 -339 602 135 137 144
90 -338 600 133 135 142
91 -337 599 132 134 141
91 -337 598 133 135 142
92 -336 597 131 133 140
93 -335 596 130 132 139
94 -334 594 132 134 141
94 -333 592 134 136 143
95 -333 592 131 133 140
96 -332 590 132 134 141
96 -331 588 130 132 139
97 -330 587 132 134 141
98 -329 585 136 138 145
98 -329 584 135 137 144
99 -328 583 133 135 142
100 -327 581 134 136 143
101 -326 580 136 138 145
101 -326 579 141 143 150
102 -325 577 139 141 148
103 -324 576 132 134 141
103 -323 574 130 132 139
104 -322 573 131 133 140
105 -322 572 133 135 142
105 -321 571 135 137 144
106 -321 570 129 131 138
107 -320 569 130 132 139
107 -320 568 131 133 140
108 -318 566 133 135 142
109 -318 565 130 132 139
109 -317 563 126 128 135
110 -316 562 132 134 141
110 -315 560 142 144 151
111 -314 559 133 135 142
112 -314 559 134 136 143
113 -314 558 132 134 141
113 -313 556 131 133 140
114 -312 555 130 132 139
114 -312 554 128 130 137
115 -310 552 129 131 138
116 -310 552 130 132 139
116 -310 551 131 133 140
117 -310 551 133 135 142
118 -309 549 132 134 141
118 -308 548 129 131 138
119 -308 547 129 131 138
120 -307 546 131 133 140
120 -306 545 133 135 142
121 -305 543 137 139 146
121 -305 542 135 137 144
122 -304 541 134 136 143
123 -304 540 134 136 142
123 -303 539 131 133 139
124 -302 538 126 128 134
124 -301 536 126 128 135
125 -301 535 127 129 136
125 -300 533 125 127 134
126 -299 532 129 131 138
126 -298 531 132 134 141
127 -298 530 132 134 140
128 -297 529 129 131 137
128 -297 528 127 129 135
129 -296 527 130 132 138
129 -296 526 131 133 139
130 -294 524 130 132 138
130 -294 523 133 135 141
131 -293 522 132 134 140
131 -292 520 133 135 141
132 -292 520 132 134 140
132 -291 518 132 134 140
133 -290 517 131 133 139
133 -289 515 130 132 138
134 -289 514 133 135 141
134 -289 514 129 131 137
135 -288 512 131 133 139
135 -287 511 127 129 135
136 -287 511 130 132 138
137 -286 510 130 132 138
137 -286 509 140 142 148
138 -285 508 133 135 141
138 -285 507 128 130 136
138 -284 505 130 132 138
139 -284 505 130 132 138
139 -282 503 128 130 136
140 -282 502 125 127 133
141 -282 502 129 131 137
141 -281 500 132 134 140
142 -281 500 127 129 135
143 -281 500 122 124 130
143 -280 498 128 130 136
143 -279 497 126 128 134
144 -278 496 123 125 131
144 -278 495 122 124 130
145 -277 494 123 125 131
145 -277 493 122 124 130
146 -276 492 123 125 131
146 -276 492 125 127 133
147 -276 491 128 130 136
147 -275 490 127 129 135
148 -274 488 125 127 133
148 -274 488 123 125 131
149 -273 487 123 125 131
149 -273 486 123 125 131
150 -272 485 124 126 132
150 -272 484 125 127 133
151 -271 483 125 127 133
151 -270 482 126 128 134
151 -270 481 127 129 135
152 -269 480 128 130 136
152 -269 479 128 130 136
153 -268 478 129 131 137
153 -268 477 130 132 138
154 -267 476 130 132 138
154 -267 476 129 132 138
155 -266 475 129 132 138
155 -266 474 127 130 136
155 -265 472 126 129 135
156 -265 472 125 128 134
156 -264 471 122 125 131
157 -264 470 122 125 131
158 -264 470 124 127 133
158 -263 469 126 129 135
158 -262 468 127 130 136
159 -262 468 128 131 137
159 -262 467 128 131 137
160 -261 466 125 128 134
160 -261 465 121 124 130
161 -260 464 122 125 131
161 -260 464 122 125 131
162 -260 464 124 127 133
162 -259 463 126 129 135
163 -259 462 127 130 136
164 -259 462 126 129 135
164 -258 461 125 128 134
164 -258 460 124 127 133
165 -258 460 123 126 132
165 -257 459 122 125 131
165 -256 457 121 124 130
166 -256 457 124 127 133
166 -255 456 128 131 137
167 -255 456 130 133 139
168 -255 456 129 132 138
169 -255 456 129 132 138
169 -255 456 129 132 138
170 -255 455 128 133 138
170 -255 455 125 131 136
171 -254 454 122 128 133
171 -254 454 122 128 133
172 -254 454 124 129 134
173 -254 454 124 127 133
173 -254 454 124 127 133
174 -254 453 124 127 133
175 -254 454 125 128 134
176 -254 454 128 131 137
176 -254 454 127 130 136
177 -254 454 126 129 135
177 -254 453 125 128 134
178 -254 453 124 127 133
178 -253 452 121 124 130
179 -253 452 122 125 131
180 -253 452 128 131 138
180 -253 452 129 132 139
181 -253 452 128 131 138
182 -253 452 125 128 135
183 -253 453 123 126 133
184 -253 453 121 124 131
-191 -178 321 164 203 236
-190 -178 321 164 203 236
-190 -178 321 163 202 235
-190 -178 322 164 203 236
-190 -178 322 165 204 237
-189 -178 322 167 206 239
-189 -178 322 167 206 239
-188 -178 322 166 205 238
-188 -178 322 163 202 235
-187 -178 322 163 201 231
-187 -179 323 159 196 223
-187 -179 323 160 194 220
-186 -179 323 148 180 203
-186 -179 323 133 160 181
-185 -179 323 119 141 160
-185 -180 324 112 131 147
-185 -180 324 116 131 146
-185 -180 325 119 132 144
-185 -181 326 134 145 154
-184 -181 326 146 157 164
-184 -181 326 150 160 165
-185 -182 328 149 160 165
-184 -182 328 149 160 165
-184 -183 329 147 159 164
-184 -183 329 146 159 164
-177 -595 1060 138 137 144
-175 -591 1053 139 138 145
-172 -588 1047 139 138 145
-169 -584 1041 139 138 145
-167 -583 1038 138 137 144
-164 -579 1031 137 136 143
-162 -575 1024 136 135 141
-159 -571 1018 137 137 141
-156 -567 1011 138 138 142
-154 -564 1004 139 139 143
-151 -561 999 137 137 141
-149 -558 995 136 136 140
-147 -556 991 138 138 142
-145 -554 987 139 139 143
-143 -552 984 141 141 145
-141 -551 981 141 141 145
-139 -548 977 140 140 144
-137 -547 974 140 140 144
-135 -545 970 141 141 145
-133 -543 967 141 141 145
-131 -540 962 141 141 145
-128 -537 957 140 140 144
-126 -535 953 139 139 143
-124 -533 949 140 140 144
-122 -531 946 139 139 143
-120 -529 942 138 138 142
-119 -527 939 137 137 141
-117 -526 937 138 138 142
-115 -525 935 137 137 141
-113 -523 932 138 138 142
-111 -522 929 141 141 145
-110 -520 926 137 137 141
-108 -519 924 138 138 142
-106 -517 920 140 140 144
-104 -515 917 141 141 145
-102 -513 914 142 142 146
-101 -512 911 141 141 145
-99 -510 908 139 139 143
-97 -509 906 137 137 141
-96 -508 905 140 140 144
-94 -507 902 140 140 144
-92 -505 900 141 141 145
-90 -504 897 141 141 145
-89 -502 894 140 140 144
-87 -500 891 140 140 144
-85 -499 889 139 139 143
-84 -498 886 138 138 142
-82 -497 884 137 137 141
-80 -495 881 141 141 145
-79 -494 879 145 145 149
-77 -493 878 143 143 147
-76 -492 876 138 138 142
-74 -490 873 137 137 141
-73 -489 870 139 139 143
-71 -488 868 139 139 143
-70 -486 866 139 139 143
-68 -485 863 140 140 144
-66 -483 860 140 140 144
-65 -481 857 138 138 142
-63 -480 854 137 137 141
-62 -479 852 137 137 141
-60 -478 850 136 136 140
-59 -476 848 136 135 141
-57 -475 846 135 134 141
-56 -474 844 139 138 145
-54 -473 842 143 142 149
-53 -471 839 143 142 149
-51 -470 837 139 138 145
-50 -469 834 138 137 144
-48 -467 832 139 138 145
-47 -466 830 140 139 146
-45 -465 828 138 137 144
-44 -464 826 141 140 147
-43 -462 823 140 139 146
-41 -461 821 140 139 146
-40 -460 818 139 138 145
-38 -458 816 137 136 143
-37 -457 813 139 138 145
-36 -456 811 138 137 144
-34 -455 809 138 137 144
-33 -453 807 137 136 143
-31 -452 804 137 136 143
-30 -451 803 137 136 143
-29 -450 801 137 136 143
-27 -449 799 137 136 144
-26 -448 797 138 137 145
-25 -447 795 140 139 147
-23 -446 793 139 138 145
-22 -444 791 139 138 145
-21 -443 789 138 137 144
-20 -442 787 140 139 146
-18 -442 786 140 139 146
-17 -441 784 138 137 144
-16 -439 782 137 136 143
-14 -438 780 136 135 142
-13 -437 778 137 136 143
-12 -435 775 139 138 145
-11 -434 772 138 137 144
-9 -433 770 136 135 142
-8 -432 769 136 135 142
-7 -431 767 137 136 143
-6 -430 765 137 136 143
-4 -429 764 138 137 144
-3 -428 762 140 139 146
-2 -427 759 139 138 145
-1 -425 757 138 137 144
0 -424 755 137 136 143
2 -423 753 135 134 141
3 -422 751 135 134 141
4 -421 749 136 135 142
5 -420 748 136 135 142
6 -419 746 135 134 141
8 -418 744 134 133 140
9 -417 742 132 131 138
10 -416 740 132 131 138
11 -415 739 131 130 137
12 -414 737 132 131 138
13 -413 735 135 134 141
14 -412 733 139 138 145
16 -411 731 139 138 145
17 -410 729 133 132 139
18 -409 727 128 127 134
19 -407 725 137 136 143
20 -406 723 134 133 140
21 -405 721 138 137 144
22 -404 719 140 139 146
23 -403 717 142 141 148
24 -402 716 141 140 147
25 -401 714 137 136 143
26 -400 712 132 131 138
27 -399 710 132 131 138
29 -398 708 137 136 143
30 -397 707 140 139 146
31 -397 706 137 136 143
32 -395 703 134 133 140
33 -395 703 133 132 139
34 -394 701 136 135 142
35 -393 700 138 137 144
36 -392 698 136 135 142
37 -391 696 135 134 141
38 -391 695 135 134 141
39 -389 692 136 135 142
40 -388 690 141 140 147
41 -386 687 136 135 142
42 -385 685 133 134 140
43 -384 683 132 134 140
44 -383 681 132 134 140
45 -381 679 131 133 139
46 -381 678 131 133 139
47 -380 676 131 133 139
48 -379 675 130 132 138
49 -379 674 129 131 137
49 -378 672 125 127 133
50 -377 671 126 128 134
51 -376 669 132 134 140
52 -375 668 133 135 141
53 -374 666 132 134 141
54 -373 664 133 135 142
55 -372 662 135 137 144
56 -371 661 133 135 142
57 -370 659 137 139 146
58 -370 658 137 139 146
59 -369 656 133 135 142
60 -368 655 134 136 143
60 -367 653 129 131 139
61 -366 651 130 131 141
62 -365 650 133 135 143
63 -364 648 134 136 143
64 -363 646 135 137 144
65 -362 645 136 138 145
66 -362 644 135 137 144
67 -361 642 136 138 145
67 -360 641 134 136 143
68 -359 639 135 137 144
69 -358 637 134 136 143
70 -357 635 136 138 145
71 -356 634 137 139 146
72 -355 632 139 141 148
72 -354 631 137 139 146
73 -354 630 134 136 143
74 -353 629 136 138 145
75 -353 628 136 138 145
76 -352 627 137 139 146
77 -351 625 135 137 144
77 -350 623 131 133 140
78 -348 620 130 132 139
79 -348 619 132 134 141
80 -347 618 135 137 144
80 -346 616 136 138 145
81 -345 615 135 137 144
82 -345 614 134 136 143
83 -344 613 135 137 144
84 -344 612 133 135 142
84 -342 610 134 136 143
85 -342 609 131 133 140
86 -341 608 130 132 139
87 -340 606 130 132 139
88 -340 605 138 140 147
88 -339 603 137 139 146
89 -337 601 133 135 142
90 -337 600 132 134 141
91 -336 599 131 133 140
91 -336 598 131 133 140
92 -335 597 131 133 140
93 -334 595 130 132 139
94 -333 594 130 132 139
94 -332 592 131 133 140
95 -332 591 136 138 145
96 -331 590 141 143 150
96 -330 588 137 139 146
97 -329 586 132 134 141
98 -328 585 133 135 142
98 -327 583 135 137 144
99 -327 582 135 137 144
100 -326 581 132 134 141
101 -325 580 132 134 141
101 -325 579 138 140 147
102 -324 577 137 139 146
102 -323 575 132 134 141
103 -322 574 131 133 140
104 -322 573 131 133 140
105 -321 572 131 133 140
105 -320 571 132 134 141
106 -319 569 131 133 140
107 -319 568 132 134 141
107 -318 567 131 133 140
108 -318 566 132 134 141
109 -317 565 131 133 140
109 -316 564 126 128 135
110 -315 562 130 132 139
110 -314 560 137 139 146
111 -314 559 135 137 144
112 -313 558 134 136 143
113 -313 558 131 133 140
113 -312 557 131 133 140
114 -311 555 131 133 140
114 -311 554 131 133 140
115 -310 552 131 133 140
115 -309 551 130 132 139
116 -309 551 127 129 136
117 -308 550 131 133 140
118 -308 549 133 135 142
118 -307 547 132 134 141
119 -306 546 130 132 139
119 -306 545 130 132 139
120 -305 544 130 132 139
121 -304 543 132 134 141
121 -304 542 131 133 140
122 -303 541 131 133 140
122 -302 539 133 135 141
123 -302 539 131 133 139
124 -301 537 127 129 135
124 -300 536 129 131 138
125 -300 535 133 135 142
125 -299 534 130 132 139
126 -298 532 128 130 137
126 -298 531 130 132 139
127 -297 530 131 133 139
128 -296 529 130 132 138
128 -296 528 128 130 136
128 -295 526 130 132 138
129 -295 526 131 133 139
130 -294 524 130 132 138
130 -293 523 134 136 142
131 -293 522 130 132 138
131 -291 520 131 133 139
132 -291 520 131 133 139
132 -290 518 130 132 138
133 -290 517 131 133 139
133 -289 516 131 133 139
134 -288 514 132 134 140
134 -288 514 131 133 139
135 -287 513 131 133 139
135 -286 511 126 128 134
136 -286 511 129 131 137
137 -286 510 130 132 138
137 -285 509 140 142 148
138 -285 508 134 136 142
138 -283 506 131 133 139
138 -283 505 132 134 140
139 -282 504 133 135 141
140 -282 504 131 133 139
140 -282 503 127 129 135
141 -281 502 129 131 137
141 -281 501 131 133 139
142 -280 500 126 128 134
143 -280 500 122 124 130
143 -279 498 127 129 135
143 -278 497 126 128 134
144 -278 496 126 128 134
144 -277 495 127 129 135
145 -277 495 126 128 134
145 -276 493 126 128 134
146 -275 492 127 129 135
146 -275 492 128 130 136
147 -275 491 127 129 135
147 -274 490 126 128 134
148 -274 489 125 127 133
148 -273 488 124 126 132
149 -273 487 123 125 131
149 -272 486 123 125 131
150 -271 485 125 127 133
150 -271 484 126 128 134
151 -270 483 127 129 135
151 -270 482 127 129 135
152 -270 482 127 129 135
152 -269 481 127 129 135
153 -269 480 127 129 135
153 -267 478 128 130 136
153 -267 477 130 132 138
154 -266 476 131 133 139
154 -266 475 127 130 136
155 -266 475 126 129 135
155 -265 473 126 129 135
155 -264 472 126 129 135
156 -263 471 123 126 132
156 -263 471 121 124 130
157 -263 470 121 124 130
158 -263 470 123 126 132
158 -262 469 126 129 135
158 -262 468 125 128 134
159 -262 468 122 125 131
159 -261 467 122 125 131
160 -261 466 123 126 132
160 -260 465 124 127 133
161 -260 465 126 129 135
161 -259 464 127 130 136
162 -259 463 128 131 137
162 -259 463 128 131 137
163 -258 462 127 130 136
164 -258 462 126 129 135
164 -258 461 126 129 135
164 -257 460 123 126 132
165 -256 459 119 122 128
165 -256 459 118 121 127
165 -255 457 120 123 129
166 -255 456 123 126 132
166 -255 456 127 130 136
167 -255 456 129 132 138
167 -254 455 130 133 139
168 -254 455 129 132 138
169 -254 455 129 132 138
170 -254 455 128 133 138
170 -254 454 125 131 136
171 -254 454 123 129 134
171 -254 454 123 129 134
172 -253 453 124 129 134
172 -253 453 124 127 133
173 -253 453 123 126 132
174 -253 453 125 128 134
174 -253 453 126 129 135
176 -253 454 128 131 137
176 -253 453 127 130 136
177 -253 453 127 130 136
177 -252 452 126 129 135
178 -252 452 124 127 133
178 -252 452 121 124 130
179 -252 452 123 126 132
180 -252 452 128 131 138
180 -252 452 130 133 140
181 -252 452 128 131 138
182 -252 452 124 127 134
183 -252 452 122 125 132
183 -252 452 122 125 132
-191 -177 321 165 204 237
-190 -177 321 165 204 237
-190 -177 321 163 202 235
-189 -177 321 164 203 236
-190 -178 322 164 203 236
-189 -178 322 165 204 237
-189 -178 322 166 205 238
-188 -178 322 165 204 237
-188 -178 322 162 201 234
-187 -178 322 162 200 229
-187 -179 323 157 194 220
-187 -179 323 159 194 218
-186 -179 323 145 177 200
-186 -179 323 127 156 175
-185 -179 323 116 140 156
-185 -179 324 111 131 146
-185 -179 324 117 132 145
-185 -180 325 122 134 145
-184 -180 325 138 147 157
-184 -180 326 149 157 165
-185 -181 327 152 159 165
-184 -181 327 150 158 164
-184 -181 328 149 159 163
-184 -182 329 148 159 164
-184 -183 330 148 159 164
-178 -594 1062 137 137 141
-175 -590 1055 138 138 142
-172 -586 1048 139 139 143
-170 -584 1043 138 138 142
-167 -580 1037 137 137 141
-164 -577 1031 136 136 140
-162 -573 1024 136 136 140
-159 -569 1017 137 137 141
-156 -566 1011 137 137 141
-154 -562 1004 140 140 144
-151 -559 999 138 138 142
-149 -556 994 136 136 140
-147 -554 990 137 137 141
-145 -553 987 138 138 142
-143 -551 984 139 139 143
-141 -549 981 142 142 146
-139 -547 977 141 141 145
-137 -545 974 139 139 143
-135 -543 970 139 139 143
-133 -542 968 140 140 144
-131 -539 963 139 139 143
-129 -537 959 138 138 142
-126 -534 954 139 139 143
-124 -532 950 140 140 144
-123 -530 947 138 138 142
-120 -527 942 136 136 140
-119 -526 939 139 139 143
-117 -525 937 140 140 144
-115 -523 934 138 138 142
-113 -522 932 138 138 142
-111 -520 929 143 143 147
-110 -519 927 138 138 142
-108 -517 924 138 138 142
-106 -516 921 140 140 144
-104 -514 917 142 142 146
-102 -512 915 142 142 146
-101 -511 912 141 141 145
-99 -509 909 139 139 143
-97 -508 907 136 136 140
-96 -507 905 139 139 143
-94 -506 903 140 140 144
-92 -504 900 140 140 144
-90 -502 897 141 141 145
-89 -501 894 141 141 145
-87 -499 891 141 141 145
-85 -498 889 140 140 144
-84 -496 886 139 139 143
-82 -495 884 139 139 143
-81 -494 882 140 140 144
-79 -492 879 142 142 146
-77 -492 878 141 141 145
-76 -491 876 137 137 141
-74 -489 873 137 137 141
-73 -488 871 139 139 143
-71 -486 868 140 140 144
-70 -485 866 140 140 144
-68 -483 863 140 140 144
-66 -482 860 141 141 145
-65 -480 857 139 139 143
-63 -479 855 137 137 141
-62 -477 852 137 137 141
-60 -476 850 136 136 140
-59 -475 848 136 136 140
-57 -474 846 136 136 140
-56 -473 844 138 137 143
-54 -472 842 141 140 147
-53 -470 839 141 140 147
-51 -469 837 139 138 145
-50 -467 834 137 136 143
-48 -466 831 137 136 143
-47 -465 830 139 138 145
-45 -464 828 136 135 142
-44 -462 825 140 139 146
-43 -462 824 142 141 148
-41 -460 821 141 140 147
-40 -458 818 140 139 146
-38 -457 816 139 138 145
-37 -456 813 139 138 145
-36 -454 811 139 138 146
-34 -453 809 139 138 146
-33 -452 807 138 137 145
-31 -451 804 138 137 145
-30 -450 803 138 137 145
-29 -448 800 137 136 144
-27 -448 799 137 136 144
-26 -447 797 136 135 143
-25 -445 795 136 135 143
-23 -444 793 141 140 147
-22 -443 791 137 136 143
-21 -442 789 138 137 144
-20 -442 788 138 137 144
-18 -440 786 136 135 142
-17 -439 784 138 137 144
-16 -438 782 139 138 145
-14 -437 780 136 135 142
-13 -436 778 138 137 144
-12 -434 775 142 141 148
-11 -433 772 139 138 145
-9 -432 770 135 134 141
-8 -431 769 136 135 142
-7 -430 767 137 136 143
-6 -429 765 137 136 143
-4 -428 764 138 137 144
-3 -427 762 139 138 145
-2 -425 759 137 136 143
-1 -424 757 136 135 142
0 -423 755 135 134 141
2 -422 753 134 133 140
3 -421 751 134 133 140
4 -420 749 135 134 141
5 -419 748 135 134 141
6 -418 746 135 134 141
8 -417 744 134 133 140
9 -416 742 133 132 139
10 -415 740 132 131 138
11 -414 739 132 131 138
12 -413 737 132 131 138
13 -412 735 136 135 142
14 -411 733 140 139 146
16 -410 731 142 141 148
17 -409 729 135 134 141
18 -407 727 127 126 133
19 -406 725 133 132 139
20 -405 723 131 130 137
21 -404 721 136 135 142
22 -403 720 139 138 145
23 -402 717 142 141 148
24 -401 715 141 140 147
25 -400 714 137 136 143
26 -400 713 134 133 140
27 -398 710 133 132 139
29 -397 708 138 137 144
30 -396 707 140 139 146
31 -396 706 136 135 142
32 -394 703 137 136 143
33 -393 702 134 133 140
34 -393 701 138 137 144
35 -392 699 138 137 144
36 -391 698 136 135 142
37 -390 696 136 135 142
38 -389 694 134 133 140
39 -388 692 133 132 139
40 -387 690 140 139 146
41 -386 688 136 135 142
42 -384 685 133 132 139
43 -383 683 134 133 140
44 -382 681 133 132 139
45 -380 679 133 132 139
46 -380 678 134 133 140
47 -379 677 132 131 138
48 -379 676 132 132 140
